#!ascii version in FreeSurfer format (SUMA)
36002 72000
6.877328  -8.073360  -4.815912  0
6.479198  -7.962294  -4.768670  0
6.084056  -7.845874  -4.709254  0
5.693053  -7.736568  -4.638141  0
5.293633  -7.645855  -4.562371  0
4.893747  -7.556710  -4.482993  0
4.500698  -7.460421  -4.391694  0
4.117913  -7.355505  -4.288823  0
3.747729  -7.244029  -4.165972  0
3.385281  -7.136800  -4.022812  0
3.034844  -7.031559  -3.869774  0
2.699705  -6.921043  -3.709303  0
2.370737  -6.809351  -3.551672  0
2.051926  -6.684264  -3.388955  0
1.743338  -6.556636  -3.227394  0
18.295429  -13.283855  -5.405648  0
18.066835  -13.371235  -5.578099  0
17.833721  -13.454412  -5.748921  0
17.592548  -13.527216  -5.912474  0
17.338352  -13.584393  -6.059044  0
17.069042  -13.625607  -6.185504  0
16.782921  -13.647860  -6.287414  0
16.481930  -13.653412  -6.366404  0
16.168259  -13.643782  -6.426880  0
15.844984  -13.621950  -6.472291  0
15.513628  -13.588020  -6.505549  0
15.176235  -13.545666  -6.530475  0
14.833148  -13.495936  -6.549890  0
14.485546  -13.436883  -6.563919  0
14.134510  -13.366775  -6.572037  0
13.781488  -13.287893  -6.574564  0
13.426344  -13.198388  -6.568635  0
13.073161  -13.094804  -6.552960  0
12.721781  -12.975188  -6.531327  0
12.371861  -12.833811  -6.505689  0
12.028138  -12.674097  -6.477179  0
11.690354  -12.490480  -6.448860  0
11.364066  -12.288781  -6.421225  0
11.053706  -12.062223  -6.393782  0
10.771508  -11.811897  -6.356383  0
10.534210  -11.543491  -6.303658  0
10.362238  -11.268350  -6.216895  0
10.249828  -11.001863  -6.098001  0
10.202084  -10.752842  -5.943515  0
10.188468  -10.520925  -5.767690  0
10.183174  -10.300392  -5.581184  0
10.156773  -10.084212  -5.395488  0
10.093702  -9.873460  -5.220425  0
9.951900  -9.664033  -5.071475  0
9.739006  -9.449634  -4.947776  0
9.461597  -9.240246  -4.849595  0
9.124402  -9.039156  -4.778690  0
8.747557  -8.855633  -4.725853  0
8.348892  -8.692713  -4.681926  0
7.940144  -8.551868  -4.648059  0
7.530075  -8.426785  -4.618484  0
7.126702  -8.311155  -4.585282  0
6.727707  -8.192150  -4.538727  0
6.329204  -8.069396  -4.481271  0
5.933451  -7.950343  -4.416191  0
5.537398  -7.846273  -4.344882  0
5.138826  -7.757889  -4.269529  0
4.743514  -7.673111  -4.189524  0
4.353813  -7.584250  -4.097260  0
3.974435  -7.485026  -3.987604  0
3.604991  -7.374468  -3.859203  0
3.246951  -7.262980  -3.712172  0
2.903004  -7.148865  -3.554869  0
2.574443  -7.033656  -3.392208  0
2.251784  -6.919324  -3.230973  0
1.933112  -6.802113  -3.075047  0
18.157990  -13.746575  -5.197032  0
17.925385  -13.834696  -5.376503  0
17.688286  -13.914429  -5.553256  0
17.439682  -13.980282  -5.717914  0
17.175800  -14.026606  -5.862960  0
16.893219  -14.050822  -5.981913  0
16.594103  -14.054425  -6.075958  0
16.278719  -14.037975  -6.140611  0
15.951926  -14.006993  -6.185239  0
15.616804  -13.964732  -6.213147  0
15.275738  -13.913067  -6.230041  0
14.930804  -13.854354  -6.240549  0
14.583447  -13.790517  -6.246631  0
14.233080  -13.717869  -6.248590  0
13.881775  -13.638715  -6.248587  0
13.530306  -13.550203  -6.246263  0
13.179377  -13.451138  -6.239483  0
12.830888  -13.340031  -6.228387  0
12.484869  -13.214183  -6.213300  0
12.143806  -13.069968  -6.196992  0
11.805522  -12.906273  -6.181871  0
11.474628  -12.721553  -6.167149  0
11.149971  -12.510346  -6.156218  0
10.848207  -12.278008  -6.142855  0
10.574239  -12.022386  -6.121787  0
10.349814  -11.746578  -6.076177  0
10.185886  -11.462690  -6.001683  0
10.090452  -11.189083  -5.889491  0
10.055652  -10.933042  -5.744723  0
10.054945  -10.695184  -5.574653  0
10.056971  -10.465452  -5.395482  0
10.030337  -10.242876  -5.215145  0
9.957916  -10.027495  -5.043237  0
9.804162  -9.819064  -4.892800  0
9.588168  -9.612860  -4.764427  0
9.300524  -9.405177  -4.662765  0
8.955751  -9.207758  -4.584913  0
8.579661  -9.027863  -4.522443  0
8.185019  -8.864605  -4.469671  0
7.783148  -8.716637  -4.419904  0
7.380721  -8.580623  -4.373427  0
6.980734  -8.448703  -4.320125  0
6.579767  -8.315777  -4.259227  0
6.181539  -8.187900  -4.194093  0
5.780502  -8.074489  -4.127118  0
5.378552  -7.978621  -4.059223  0
4.979429  -7.897098  -3.989093  0
4.585044  -7.819377  -3.909021  0
4.199792  -7.734916  -3.813995  0
3.825231  -7.639971  -3.698391  0
3.462080  -7.532588  -3.560811  0
3.108202  -7.413833  -3.411736  0
2.771180  -7.294536  -3.251552  0
2.445303  -7.173038  -3.088346  0
2.127067  -7.057975  -2.927903  0
18.004078  -14.222307  -4.989473  0
17.767952  -14.309008  -5.174541  0
17.526829  -14.384762  -5.355042  0
17.273540  -14.442728  -5.520428  0
17.002666  -14.477772  -5.662820  0
16.711292  -14.488196  -5.777158  0
16.400227  -14.471957  -5.858517  0
16.072647  -14.434723  -5.909503  0
15.733777  -14.383751  -5.938810  0
15.386931  -14.320545  -5.950774  0
15.035812  -14.249269  -5.952496  0
14.683661  -14.174349  -5.949284  0
14.327824  -14.093843  -5.943091  0
13.972661  -14.007427  -5.936138  0
13.619624  -13.916963  -5.930720  0
13.266237  -13.819085  -5.924814  0
12.916538  -13.710625  -5.918697  0
12.570101  -13.590332  -5.912569  0
12.227043  -13.455973  -5.905797  0
11.888051  -13.302893  -5.901093  0
11.554779  -13.133731  -5.897408  0
11.229046  -12.942547  -5.896818  0
10.911484  -12.727963  -5.899687  0
10.612586  -12.486488  -5.901185  0
10.344160  -12.224560  -5.892781  0
10.125769  -11.943356  -5.860214  0
9.980913  -11.647624  -5.791633  0
9.912893  -11.364711  -5.686522  0
9.910066  -11.109712  -5.544407  0
9.931956  -10.870178  -5.379937  0
9.946989  -10.638363  -5.206332  0
9.923820  -10.411470  -5.030748  0
9.845913  -10.192084  -4.861290  0
9.688491  -9.985136  -4.708413  0
9.462055  -9.787323  -4.580560  0
9.162619  -9.584970  -4.477973  0
8.804690  -9.388998  -4.394203  0
8.424156  -9.209975  -4.321515  0
8.032746  -9.043832  -4.254345  0
7.635584  -8.886662  -4.187963  0
7.237653  -8.737760  -4.122439  0
6.836094  -8.591703  -4.054484  0
6.433103  -8.447021  -3.981554  0
6.031157  -8.319935  -3.910420  0
5.624511  -8.214235  -3.844065  0
5.218668  -8.129601  -3.782212  0
4.816422  -8.058612  -3.716263  0
4.423171  -7.988942  -3.636944  0
4.041338  -7.913561  -3.538540  0
3.670631  -7.821800  -3.418841  0
3.314654  -7.712170  -3.275292  0
2.972203  -7.591353  -3.118079  0
2.638832  -7.463742  -2.956795  0
2.316556  -7.338103  -2.793840  0
17.839277  -14.708988  -4.782893  0
17.601494  -14.791229  -4.971428  0
17.358833  -14.860514  -5.155841  0
17.103294  -14.907412  -5.321827  0
16.827953  -14.929308  -5.458464  0
16.531567  -14.927389  -5.565210  0
16.213511  -14.898266  -5.638725  0
15.875970  -14.843786  -5.677689  0
15.525187  -14.771837  -5.690931  0
15.167988  -14.687531  -5.686959  0
14.808016  -14.600464  -5.675090  0
14.444164  -14.505815  -5.657937  0
14.080853  -14.409624  -5.642888  0
13.720289  -14.312128  -5.631742  0
13.360105  -14.208145  -5.623534  0
13.001359  -14.097052  -5.617509  0
12.647520  -13.978840  -5.615097  0
12.297975  -13.846748  -5.613532  0
11.952666  -13.702923  -5.612531  0
11.613285  -13.541429  -5.614622  0
11.281324  -13.360639  -5.621876  0
10.956998  -13.158691  -5.633277  0
10.643094  -12.934298  -5.649296  0
10.345224  -12.688761  -5.663321  0
10.080357  -12.417717  -5.663542  0
9.869030  -12.127660  -5.640192  0
9.743615  -11.822001  -5.581444  0
9.719942  -11.529960  -5.482012  0
9.764164  -11.277531  -5.340492  0
9.829051  -11.042860  -5.182323  0
9.861597  -10.811934  -5.014405  0
9.843811  -10.583839  -4.842923  0
9.753011  -10.362443  -4.676210  0
9.592076  -10.158916  -4.525533  0
9.352936  -9.966708  -4.397962  0
9.038603  -9.774571  -4.292514  0
8.671659  -9.583694  -4.204673  0
8.285124  -9.402645  -4.121404  0
7.889974  -9.227730  -4.039402  0
7.496337  -9.060957  -3.953365  0
7.098133  -8.900394  -3.871047  0
6.694356  -8.743778  -3.786937  0
6.288320  -8.595050  -3.707940  0
5.879145  -8.467824  -3.633420  0
5.467001  -8.372773  -3.570682  0
5.058444  -8.301487  -3.512803  0
4.652885  -8.241130  -3.450562  0
4.259762  -8.184415  -3.373579  0
3.881093  -8.116245  -3.272928  0
3.515748  -8.028340  -3.147258  0
3.166556  -7.913489  -2.997207  0
2.831497  -7.785188  -2.834812  0
2.505580  -7.651303  -2.669628  0
17.664865  -15.201408  -4.589276  0
17.429358  -15.278402  -4.784193  0
17.185392  -15.336790  -4.967522  0
16.930590  -15.376183  -5.132388  0
16.653469  -15.384848  -5.262681  0
16.353125  -15.369682  -5.359017  0
16.029837  -15.325014  -5.418886  0
15.687599  -15.255840  -5.445868  0
15.328827  -15.164436  -5.444527  0
14.961933  -15.061684  -5.426284  0
14.590527  -14.953789  -5.400425  0
14.219073  -14.845257  -5.375038  0
13.847271  -14.736197  -5.352793  0
13.476011  -14.625087  -5.336568  0
13.107996  -14.509440  -5.328634  0
12.742216  -14.388363  -5.325332  0
12.379580  -14.258138  -5.324250  0
12.021400  -14.114014  -5.326438  0
11.668259  -13.956305  -5.329704  0
11.325559  -13.780590  -5.337174  0
10.988873  -13.588745  -5.348240  0
10.661462  -13.373682  -5.366099  0
10.344927  -13.137305  -5.391311  0
10.042901  -12.882765  -5.415671  0
9.770151  -12.605173  -5.424475  0
9.559884  -12.307704  -5.415378  0
9.473208  -11.987976  -5.359710  0
9.519610  -11.693094  -5.261532  0
9.645594  -11.441805  -5.133172  0
9.761335  -11.209555  -4.982426  0
9.812531  -10.982670  -4.820095  0
9.793770  -10.755741  -4.653024  0
9.694545  -10.536047  -4.489040  0
9.520646  -10.336241  -4.340051  0
9.260063  -10.151211  -4.213403  0
8.932968  -9.969198  -4.105082  0
8.556382  -9.788544  -4.011504  0
8.159719  -9.605167  -3.918779  0
7.758629  -9.422268  -3.821826  0
7.362140  -9.240256  -3.718885  0
6.961398  -9.066678  -3.616044  0
6.555474  -8.903266  -3.521139  0
6.145402  -8.756702  -3.437002  0
5.729587  -8.635685  -3.364075  0
5.313282  -8.547715  -3.302935  0
4.899729  -8.486012  -3.247604  0
4.491324  -8.439428  -3.189172  0
4.100338  -8.392762  -3.112303  0
3.721593  -8.334183  -3.009784  0
3.362104  -8.246676  -2.877592  0
3.020628  -8.127165  -2.720558  0
2.692659  -7.992234  -2.554476  0
17.481144  -15.701275  -4.416218  0
17.248016  -15.770525  -4.616788  0
17.007412  -15.821349  -4.803741  0
16.752230  -15.850993  -4.963730  0
16.470139  -15.846800  -5.083142  0
16.165516  -15.814577  -5.164958  0
15.837085  -15.751012  -5.205481  0
15.488482  -15.661734  -5.214620  0
15.125111  -15.553204  -5.198579  0
14.753320  -15.434196  -5.169101  0
14.377747  -15.311168  -5.136240  0
14.000338  -15.186674  -5.103948  0
13.621771  -15.064492  -5.078517  0
13.242491  -14.942377  -5.060922  0
12.863350  -14.817269  -5.050711  0
12.484865  -14.686176  -5.045949  0
12.110332  -14.544791  -5.045081  0
11.741944  -14.388190  -5.047534  0
11.380057  -14.215506  -5.052344  0
11.026185  -14.024625  -5.059917  0
10.682381  -13.817608  -5.070945  0
10.347494  -13.590794  -5.087754  0
10.023458  -13.340689  -5.113028  0
9.711249  -13.073066  -5.142240  0
9.420722  -12.784713  -5.157961  0
9.193997  -12.470771  -5.153992  0
9.157167  -12.143653  -5.105523  0
9.334078  -11.859524  -5.017620  0
9.569536  -11.606257  -4.914279  0
9.736872  -11.374572  -4.777710  0
9.802032  -11.149920  -4.623519  0
9.782883  -10.928850  -4.460221  0
9.668326  -10.712420  -4.296972  0
9.471636  -10.514856  -4.147559  0
9.195095  -10.336595  -4.019232  0
8.845986  -10.166759  -3.910889  0
8.457534  -9.996842  -3.812133  0
8.048283  -9.815052  -3.711812  0
7.638921  -9.625170  -3.598535  0
7.237238  -9.429549  -3.478498  0
6.831197  -9.237885  -3.359418  0
6.421572  -9.068443  -3.255182  0
6.005764  -8.924316  -3.167162  0
5.585482  -8.811332  -3.095345  0
5.164653  -8.728861  -3.036141  0
4.745482  -8.673703  -2.983667  0
4.339144  -8.637145  -2.925419  0
3.944487  -8.603302  -2.846174  0
3.564408  -8.555442  -2.742373  0
3.212306  -8.465458  -2.601791  0
2.879478  -8.337782  -2.441120  0
17.287624  -16.214161  -4.264774  0
17.055216  -16.273407  -4.468884  0
16.815517  -16.315659  -4.657619  0
16.552776  -16.325687  -4.804388  0
16.265869  -16.304222  -4.910087  0
15.955203  -16.250418  -4.973393  0
15.621658  -16.166080  -4.995438  0
15.268552  -16.057020  -4.984391  0
14.902075  -15.930406  -4.952996  0
14.529223  -15.798195  -4.913986  0
14.151828  -15.662839  -4.873674  0
13.771361  -15.528313  -4.838561  0
13.388300  -15.394754  -4.810063  0
13.002133  -15.262318  -4.791170  0
12.614477  -15.127373  -4.779805  0
12.226126  -14.985588  -4.774452  0
11.839325  -14.833467  -4.772442  0
11.457424  -14.666147  -4.771656  0
11.082416  -14.479605  -4.771502  0
10.717812  -14.272212  -4.772954  0
10.362629  -14.047625  -4.777877  0
10.019092  -13.803423  -4.786904  0
9.689079  -13.540173  -4.804811  0
9.370569  -13.256350  -4.825260  0
9.067576  -12.948434  -4.832973  0
8.826361  -12.615005  -4.824090  0
8.846234  -12.288680  -4.795500  0
9.202663  -12.038459  -4.751812  0
9.563622  -11.788445  -4.683278  0
9.759307  -11.550110  -4.571279  0
9.833579  -11.326332  -4.425389  0
9.798024  -11.104465  -4.262880  0
9.674579  -10.887749  -4.097314  0
9.451712  -10.690411  -3.944284  0
9.151289  -10.518474  -3.813165  0
8.780471  -10.359909  -3.703593  0
8.373470  -10.202828  -3.604569  0
7.948520  -10.031031  -3.498208  0
7.530277  -9.833863  -3.370568  0
7.125063  -9.620813  -3.229094  0
6.713880  -9.416239  -3.100314  0
6.297792  -9.237159  -2.989406  0
5.874997  -9.093599  -2.898617  0
5.450845  -8.983347  -2.826191  0
5.025054  -8.906844  -2.767661  0
4.606327  -8.858192  -2.713267  0
4.196480  -8.827855  -2.648677  0
3.798210  -8.800673  -2.564605  0
3.418291  -8.761139  -2.459235  0
3.071014  -8.668701  -2.318497  0
17.083754  -16.742558  -4.140038  0
16.853817  -16.795403  -4.351198  0
16.608742  -16.819380  -4.530871  0
16.337997  -16.806265  -4.661572  0
16.037075  -16.753698  -4.738076  0
15.715502  -16.673367  -4.776408  0
15.375043  -16.565210  -4.775270  0
15.020378  -16.437262  -4.747286  0
14.655479  -16.296974  -4.703071  0
14.282996  -16.151094  -4.652919  0
13.904976  -16.006084  -4.605532  0
13.521133  -15.862958  -4.565455  0
13.135070  -15.721390  -4.535069  0
12.744059  -15.579757  -4.515640  0
12.349097  -15.434706  -4.503339  0
11.951470  -15.280848  -4.496468  0
11.554238  -15.117906  -4.491455  0
11.161125  -14.939121  -4.484461  0
10.774420  -14.739571  -4.475866  0
10.397844  -14.518811  -4.466986  0
10.036922  -14.274705  -4.459385  0
9.692492  -14.010960  -4.453458  0
9.369838  -13.729334  -4.453759  0
9.088930  -13.428843  -4.455165  0
8.864513  -13.109324  -4.455440  0
8.681812  -12.783946  -4.441486  0
8.818968  -12.474601  -4.465972  0
9.269909  -12.220098  -4.486749  0
9.648263  -11.983498  -4.460208  0
9.845520  -11.742186  -4.370260  0
9.904968  -11.509192  -4.228965  0
9.849593  -11.281369  -4.062009  0
9.693117  -11.061731  -3.889235  0
9.442529  -10.863094  -3.730585  0
9.116718  -10.694221  -3.595234  0
8.729441  -10.547657  -3.482455  0
8.305416  -10.404657  -3.381832  0
7.863057  -10.243138  -3.270748  0
7.432789  -10.038520  -3.126698  0
7.023894  -9.809833  -2.968629  0
6.609752  -9.592016  -2.832305  0
6.186041  -9.407699  -2.720133  0
5.755961  -9.259775  -2.628445  0
5.325246  -9.151382  -2.555545  0
4.898231  -9.079914  -2.494793  0
4.475577  -9.035708  -2.434233  0
4.060743  -9.008294  -2.362606  0
3.663280  -8.980071  -2.274729  0
3.292839  -8.924925  -2.160132  0
16.873260  -17.275291  -4.043942  0
16.639141  -17.311283  -4.247846  0
16.385300  -17.315741  -4.411779  0
16.101728  -17.276545  -4.516952  0
15.789881  -17.198215  -4.566924  0
15.457360  -17.088179  -4.573699  0
15.109591  -16.955328  -4.547969  0
14.750223  -16.806122  -4.498862  0
14.384048  -16.648331  -4.439818  0
14.010150  -16.490658  -4.379620  0
13.628881  -16.337410  -4.325471  0
13.245321  -16.186699  -4.281519  0
12.855318  -16.038227  -4.249218  0
12.458605  -15.888361  -4.227033  0
12.056770  -15.733658  -4.211449  0
11.651499  -15.568342  -4.199429  0
11.246616  -15.392069  -4.187894  0
10.846342  -15.199204  -4.173292  0
10.452404  -14.984886  -4.153241  0
10.072106  -14.748846  -4.130604  0
9.712733  -14.488630  -4.104650  0
9.387304  -14.206840  -4.081522  0
9.120546  -13.907440  -4.068433  0
8.946541  -13.600176  -4.072009  0
8.868317  -13.288756  -4.088211  0
8.884493  -12.986266  -4.115919  0
9.103672  -12.700750  -4.183542  0
9.507514  -12.435823  -4.259772  0
9.820166  -12.192911  -4.265818  0
9.982704  -11.942254  -4.179361  0
10.007930  -11.696115  -4.032483  0
9.924698  -11.458094  -3.856018  0
9.724258  -11.234713  -3.671177  0
9.444680  -11.032050  -3.504047  0
9.091990  -10.859906  -3.361564  0
8.691515  -10.718846  -3.242970  0
8.251106  -10.589332  -3.138893  0
7.790918  -10.440859  -3.020879  0
7.350821  -10.225238  -2.863503  0
6.935394  -9.980675  -2.695983  0
6.518406  -9.759279  -2.556601  0
6.086512  -9.571451  -2.445993  0
5.652044  -9.425286  -2.357887  0
5.217084  -9.317543  -2.283591  0
4.783393  -9.246786  -2.218430  0
4.350986  -9.202744  -2.152551  0
3.938686  -9.171732  -2.072584  0
3.551070  -9.128212  -1.976050  0
16.655586  -17.810076  -3.964693  0
16.410629  -17.825459  -4.151715  0
16.142178  -17.801533  -4.288623  0
15.844739  -17.733238  -4.364252  0
15.524639  -17.629616  -4.388800  0
15.182053  -17.491451  -4.361876  0
14.825606  -17.330204  -4.302545  0
14.460775  -17.160233  -4.231385  0
14.087973  -16.989052  -4.157692  0
13.709511  -16.821083  -4.089736  0
13.326445  -16.657770  -4.030607  0
12.937794  -16.500252  -3.982798  0
12.542068  -16.344496  -3.947175  0
12.142262  -16.186329  -3.920484  0
11.737519  -16.020939  -3.899420  0
11.326607  -15.842287  -3.879215  0
10.916462  -15.651150  -3.857268  0
10.511604  -15.442918  -3.829904  0
10.117979  -15.213062  -3.793622  0
9.746132  -14.961264  -3.754579  0
9.412599  -14.684832  -3.714806  0
9.145191  -14.386286  -3.681904  0
8.989397  -14.079021  -3.674801  0
8.962075  -13.779655  -3.703199  0
9.021931  -13.488498  -3.769767  0
9.178167  -13.210611  -3.866004  0
9.475192  -12.944688  -3.986189  0
9.806295  -12.681886  -4.083401  0
10.045370  -12.414712  -4.085217  0
10.152465  -12.145010  -3.992083  0
10.139600  -11.881975  -3.834014  0
10.013001  -11.630143  -3.640891  0
9.772573  -11.402688  -3.440784  0
9.449982  -11.193561  -3.260692  0
9.070759  -11.013431  -3.109601  0
8.655018  -10.869156  -2.982357  0
8.210076  -10.743105  -2.865612  0
7.740883  -10.602543  -2.742417  0
7.290279  -10.374228  -2.577571  0
6.863298  -10.127939  -2.412294  0
6.438638  -9.909980  -2.274670  0
6.001787  -9.728444  -2.169913  0
5.562634  -9.585857  -2.084834  0
5.122343  -9.477776  -2.009091  0
4.685894  -9.405165  -1.938510  0
4.252569  -9.355815  -1.864048  0
3.835181  -9.315276  -1.780279  0
16.429914  -18.343891  -3.898758  0
16.168808  -18.334644  -4.060205  0
15.884475  -18.283234  -4.167643  0
15.570829  -18.184898  -4.205925  0
15.235283  -18.045418  -4.184698  0
14.885435  -17.876942  -4.122083  0
14.522620  -17.691511  -4.032889  0
14.151609  -17.502930  -3.940193  0
13.771484  -17.320278  -3.853909  0
13.385344  -17.145216  -3.779763  0
12.994069  -16.974943  -3.716249  0
12.600199  -16.808735  -3.665063  0
12.202817  -16.643135  -3.624045  0
11.800526  -16.473179  -3.591266  0
11.392795  -16.294357  -3.561340  0
10.981158  -16.102823  -3.531838  0
10.569298  -15.894855  -3.494432  0
10.166785  -15.669539  -3.449671  0
9.789118  -15.422892  -3.397158  0
9.458686  -15.152488  -3.345959  0
9.210558  -14.858016  -3.307648  0
9.045607  -14.552100  -3.286361  0
9.002989  -14.251286  -3.298292  0
9.088465  -13.967236  -3.381768  0
9.283184  -13.705757  -3.526387  0
9.548339  -13.455597  -3.687117  0
9.858289  -13.197706  -3.844098  0
10.127386  -12.921167  -3.931574  0
10.294697  -12.632574  -3.911620  0
10.345637  -12.347618  -3.801406  0
10.274875  -12.069750  -3.623730  0
10.090995  -11.802853  -3.409768  0
9.812413  -11.564988  -3.194326  0
9.456539  -11.349983  -3.001449  0
9.048116  -11.159026  -2.844371  0
8.618649  -11.001862  -2.706397  0
8.171327  -10.871097  -2.577814  0
7.703252  -10.710949  -2.439916  0
7.240089  -10.491727  -2.281856  0
6.800674  -10.259613  -2.126854  0
6.367659  -10.047931  -1.996041  0
5.929356  -9.876232  -1.895521  0
5.486729  -9.738555  -1.811601  0
5.041170  -9.629755  -1.733017  0
4.598382  -9.553794  -1.655612  0
4.163854  -9.495180  -1.574959  0
16.184677  -18.879633  -3.833927  0
15.906050  -18.850788  -3.972638  0
15.602686  -18.771688  -4.043310  0
15.269230  -18.628529  -4.020625  0
14.921569  -18.451717  -3.949877  0
14.563158  -18.250841  -3.843715  0
14.195680  -18.045519  -3.730503  0
13.818701  -17.843889  -3.622876  0
13.432418  -17.651789  -3.528351  0
13.038558  -17.467714  -3.447214  0
12.641500  -17.290154  -3.381169  0
12.242218  -17.114838  -3.327706  0
11.842607  -16.936556  -3.282085  0
11.440758  -16.753267  -3.240350  0
11.035040  -16.560822  -3.196754  0
10.626596  -16.351706  -3.149676  0
10.220605  -16.128012  -3.098820  0
9.837469  -15.881880  -3.036321  0
9.507112  -15.615166  -2.973166  0
9.285153  -15.325241  -2.933169  0
9.163212  -15.023837  -2.920364  0
9.123877  -14.722514  -2.935790  0
9.190973  -14.438742  -3.012229  0
9.384144  -14.184187  -3.165162  0
9.665522  -13.947572  -3.365819  0
9.974489  -13.709829  -3.572706  0
10.255694  -13.447256  -3.727122  0
10.450677  -13.148190  -3.771343  0
10.549416  -12.844423  -3.725235  0
10.533054  -12.548717  -3.593859  0
10.390137  -12.263237  -3.388601  0
10.151248  -11.986822  -3.156949  0
9.831926  -11.730313  -2.931429  0
9.454774  -11.499737  -2.729878  0
9.023872  -11.297095  -2.565384  0
8.576979  -11.121056  -2.419134  0
8.122207  -10.970720  -2.279730  0
7.658320  -10.803098  -2.136614  0
7.188161  -10.595922  -1.988648  0
6.741059  -10.380366  -1.844916  0
6.302559  -10.180233  -1.724813  0
5.862635  -10.014526  -1.626483  0
5.417766  -9.879610  -1.541129  0
4.970307  -9.770316  -1.460168  0
4.524910  -9.689106  -1.376422  0
15.914423  -19.425209  -3.772726  0
15.615615  -19.372358  -3.882797  0
15.283608  -19.240459  -3.877752  0
14.932184  -19.051380  -3.786660  0
14.577461  -18.836559  -3.660973  0
14.217148  -18.615305  -3.527799  0
13.848640  -18.394436  -3.398620  0
13.467196  -18.181784  -3.282466  0
13.074421  -17.980768  -3.185631  0
12.672512  -17.789787  -3.103464  0
12.269125  -17.603333  -3.034345  0
11.868027  -17.417871  -2.976238  0
11.468574  -17.225479  -2.922347  0
11.069507  -17.026520  -2.869469  0
10.673561  -16.817566  -2.809592  0
10.284182  -16.594482  -2.741921  0
9.915392  -16.348797  -2.670277  0
9.582060  -16.082516  -2.598657  0
9.343649  -15.795665  -2.545279  0
9.264938  -15.496156  -2.542255  0
9.281582  -15.199009  -2.585506  0
9.371012  -14.916012  -2.678724  0
9.552791  -14.658142  -2.834757  0
9.818267  -14.424593  -3.041903  0
10.128792  -14.198816  -3.278813  0
10.425566  -13.951080  -3.488955  0
10.659372  -13.672024  -3.612951  0
10.781305  -13.358366  -3.613124  0
10.798638  -13.046255  -3.525852  0
10.701900  -12.747477  -3.357874  0
10.486893  -12.460132  -3.128582  0
10.188582  -12.181060  -2.884540  0
9.829796  -11.907950  -2.654269  0
9.434532  -11.647355  -2.449387  0
8.995253  -11.430220  -2.277592  0
8.529683  -11.237759  -2.127145  0
8.064704  -11.065166  -1.981667  0
7.602855  -10.893998  -1.839794  0
7.132562  -10.697900  -1.702120  0
6.679827  -10.496343  -1.572631  0
6.237126  -10.307644  -1.460617  0
5.794238  -10.145886  -1.364197  0
5.354367  -10.012347  -1.275639  0
4.909026  -9.903921  -1.191260  0
15.589566  -19.924961  -3.636158  0
15.259123  -19.817322  -3.666001  0
14.913580  -19.645580  -3.601242  0
14.564310  -19.430920  -3.477149  0
14.212996  -19.201044  -3.332955  0
13.854817  -18.967981  -3.186642  0
13.483500  -18.740900  -3.050831  0
13.095872  -18.523880  -2.933664  0
12.694524  -18.316742  -2.836190  0
12.286493  -18.114746  -2.755415  0
11.879243  -17.915554  -2.685852  0
11.479321  -17.714676  -2.622286  0
11.090312  -17.505587  -2.561545  0
10.711393  -17.287582  -2.495246  0
10.345301  -17.058987  -2.417568  0
9.995703  -16.818962  -2.328919  0
9.690252  -16.557806  -2.238068  0
9.464254  -16.268480  -2.172179  0
9.345840  -15.966124  -2.146878  0
9.396617  -15.663837  -2.206428  0
9.533595  -15.381010  -2.331282  0
9.725049  -15.120005  -2.499023  0
10.000194  -14.886050  -2.727101  0
10.307564  -14.660370  -2.979846  0
10.608404  -14.423765  -3.215921  0
10.861263  -14.150805  -3.387492  0
11.026872  -13.851631  -3.455003  0
11.076581  -13.540557  -3.412313  0
11.014451  -13.233821  -3.285251  0
10.831983  -12.941568  -3.084470  0
10.541681  -12.660288  -2.839077  0
10.203135  -12.383141  -2.596402  0
9.814404  -12.098275  -2.370266  0
9.397345  -11.813697  -2.166963  0
8.959729  -11.565746  -1.988267  0
8.480736  -11.359113  -1.835711  0
8.002846  -11.164366  -1.687856  0
7.538089  -10.989288  -1.551377  0
7.070692  -10.803226  -1.424772  0
6.614647  -10.614222  -1.309674  0
6.169774  -10.432635  -1.203276  0
5.728467  -10.272875  -1.107661  0
5.292926  -10.140323  -1.017655  0
15.214993  -20.350132  -3.397165  0
14.872974  -20.205082  -3.372561  0
14.529035  -20.011532  -3.279027  0
14.185719  -19.786940  -3.142642  0
13.838462  -19.549873  -2.988602  0
13.480367  -19.312202  -2.836927  0
13.103375  -19.082598  -2.701374  0
12.707924  -18.860889  -2.586613  0
12.296867  -18.645403  -2.498153  0
11.882725  -18.432583  -2.423132  0
11.476921  -18.216160  -2.353429  0
11.089651  -17.995907  -2.285948  0
10.731119  -17.765213  -2.213668  0
10.399426  -17.524309  -2.131292  0
10.098692  -17.270744  -2.038365  0
9.827598  -17.007645  -1.938224  0
9.611626  -16.732941  -1.838500  0
9.531520  -16.431698  -1.805442  0
9.582117  -16.124096  -1.862555  0
9.713342  -15.835738  -1.982462  0
9.927516  -15.574610  -2.170538  0
10.194803  -15.336185  -2.409312  0
10.504042  -15.107019  -2.680826  0
10.804216  -14.866111  -2.934032  0
11.064629  -14.594850  -3.127295  0
11.261288  -14.297401  -3.240804  0
11.355272  -13.994514  -3.250367  0
11.335951  -13.697336  -3.164939  0
11.193668  -13.411819  -3.003374  0
10.925082  -13.134156  -2.776836  0
10.582276  -12.859642  -2.532044  0
10.202125  -12.586893  -2.298748  0
9.791765  -12.299285  -2.081153  0
9.357073  -11.999185  -1.884745  0
8.906905  -11.719404  -1.706306  0
8.427507  -11.489379  -1.550018  0
7.939110  -11.282457  -1.406807  0
7.469926  -11.092666  -1.271790  0
7.004120  -10.914795  -1.158516  0
6.548377  -10.731876  -1.052005  0
6.102259  -10.555014  -0.952345  0
5.663558  -10.397427  -0.857491  0
14.825412  -20.749575  -3.137169  0
14.480800  -20.582464  -3.078796  0
14.141216  -20.369473  -2.957293  0
13.802149  -20.133873  -2.804857  0
13.455453  -19.890236  -2.645047  0
13.092262  -19.647326  -2.494917  0
12.707403  -19.411955  -2.364889  0
12.296331  -19.184511  -2.267259  0
11.877573  -18.959642  -2.185655  0
11.465183  -18.730015  -2.115575  0
11.074736  -18.495121  -2.045344  0
10.720613  -18.251461  -1.969122  0
10.424730  -17.994329  -1.880836  0
10.176253  -17.724453  -1.786250  0
9.982238  -17.440201  -1.688042  0
9.832081  -17.151217  -1.591923  0
9.768250  -16.856510  -1.532662  0
9.815329  -16.559023  -1.553879  0
9.957426  -16.273302  -1.663471  0
10.161792  -16.012127  -1.840293  0
10.423288  -15.776550  -2.087386  0
10.721564  -15.549034  -2.371778  0
11.025057  -15.304611  -2.653047  0
11.304586  -15.034514  -2.884924  0
11.520423  -14.731161  -3.020509  0
11.634662  -14.415545  -3.047984  0
11.638460  -14.113867  -2.985808  0
11.536924  -13.836275  -2.858258  0
11.326196  -13.577065  -2.674972  0
10.995113  -13.322124  -2.446577  0
10.600525  -13.055790  -2.213845  0
10.186814  -12.784862  -1.996537  0
9.758156  -12.500004  -1.794435  0
9.312427  -12.200419  -1.607952  0
8.845995  -11.898130  -1.435272  0
8.366029  -11.633489  -1.275319  0
7.873209  -11.415771  -1.139455  0
7.396727  -11.218446  -1.015564  0
6.932487  -11.034777  -0.904758  0
6.478549  -10.854128  -0.806497  0
6.034609  -10.679816  -0.710064  0
14.426083  -21.146236  -2.881027  0
14.084698  -20.948404  -2.779697  0
13.749487  -20.717714  -2.633163  0
13.411015  -20.471474  -2.470332  0
13.057859  -20.220989  -2.311554  0
12.680874  -19.973471  -2.173201  0
12.276791  -19.733116  -2.062710  0
11.854195  -19.496222  -1.977293  0
11.433786  -19.256535  -1.904286  0
11.037283  -19.008066  -1.831921  0
10.690439  -18.748295  -1.751226  0
10.412657  -18.473604  -1.659019  0
10.213731  -18.184788  -1.560935  0
10.092131  -17.879219  -1.459906  0
10.023966  -17.567177  -1.366334  0
10.012051  -17.258518  -1.301396  0
10.068196  -16.957945  -1.292600  0
10.210782  -16.675499  -1.368449  0
10.415207  -16.418539  -1.521177  0
10.668877  -16.189777  -1.749307  0
10.953992  -15.975687  -2.034920  0
11.263844  -15.749302  -2.343787  0
11.567347  -15.479161  -2.625958  0
11.829377  -15.168101  -2.839496  0
11.990669  -14.829706  -2.906064  0
12.006577  -14.508127  -2.835593  0
11.902676  -14.218124  -2.693957  0
11.711243  -13.960323  -2.518881  0
11.428288  -13.730346  -2.318660  0
11.045638  -13.499092  -2.100410  0
10.609989  -13.247385  -1.889020  0
10.170266  -12.977966  -1.690442  0
9.718472  -12.695567  -1.509458  0
9.256704  -12.400610  -1.340885  0
8.783143  -12.096970  -1.178267  0
8.294044  -11.809406  -1.024884  0
7.803640  -11.560946  -0.884668  0
7.322643  -11.360468  -0.776047  0
6.856483  -11.170650  -0.674807  0
6.405702  -10.982988  -0.573848  0
14.023975  -21.511715  -2.596225  0
13.686029  -21.292000  -2.465609  0
13.348149  -21.050583  -2.309841  0
13.000250  -20.798244  -2.148892  0
12.627392  -20.543676  -2.004601  0
12.228138  -20.292393  -1.885540  0
11.806355  -20.042564  -1.792955  0
11.380491  -19.791828  -1.715924  0
10.978565  -19.531502  -1.640323  0
10.632897  -19.256397  -1.556049  0
10.377445  -18.962437  -1.460738  0
10.223382  -18.651207  -1.358962  0
10.167138  -18.323240  -1.253006  0
10.146090  -17.991428  -1.148336  0
10.182343  -17.660023  -1.066015  0
10.282278  -17.341724  -1.033993  0
10.452525  -17.053661  -1.081982  0
10.666414  -16.796551  -1.205909  0
10.916916  -16.568621  -1.401206  0
11.199997  -16.363008  -1.663607  0
11.507305  -16.158333  -1.971226  0
11.825409  -15.927171  -2.287996  0
12.129456  -15.627714  -2.561496  0
12.367162  -15.265800  -2.747552  0
12.436378  -14.890486  -2.726253  0
12.325538  -14.574728  -2.556854  0
12.125456  -14.303688  -2.362482  0
11.857291  -14.073204  -2.159742  0
11.511850  -13.869267  -1.950743  0
11.088415  -13.662090  -1.747064  0
10.619493  -13.425006  -1.558681  0
10.149046  -13.163345  -1.385642  0
9.675034  -12.883467  -1.228261  0
9.196348  -12.593826  -1.080651  0
8.708732  -12.296862  -0.938016  0
8.218478  -12.003500  -0.793679  0
7.729841  -11.743258  -0.663596  0
7.245515  -11.520915  -0.557391  0
6.779814  -11.315529  -0.454954  0
13.617595  -21.853474  -2.298189  0
13.274632  -21.623438  -2.158953  0
12.925296  -21.373129  -2.002528  0
12.556906  -21.114765  -1.851375  0
12.158325  -20.854420  -1.726852  0
11.734481  -20.593464  -1.629450  0
11.304398  -20.329924  -1.547453  0
10.895048  -20.059364  -1.466441  0
10.561876  -19.770557  -1.376155  0
10.331099  -19.460339  -1.277768  0
10.236904  -19.128981  -1.173986  0
10.224987  -18.782589  -1.066366  0
10.263145  -18.426167  -0.958510  0
10.354751  -18.069105  -0.864639  0
10.491254  -17.725708  -0.801268  0
10.667437  -17.412266  -0.793650  0
10.890270  -17.142851  -0.867819  0
11.148890  -16.915510  -1.025348  0
11.435208  -16.717525  -1.261236  0
11.744367  -16.527615  -1.550850  0
12.068333  -16.323971  -1.864503  0
12.386778  -16.067379  -2.159472  0
12.674359  -15.734056  -2.401914  0
12.842404  -15.329895  -2.510498  0
12.786931  -14.934663  -2.415818  0
12.584478  -14.625955  -2.219197  0
12.305699  -14.374932  -2.003064  0
11.974084  -14.170034  -1.787551  0
11.583421  -13.991895  -1.578727  0
11.125057  -13.807396  -1.390482  0
10.624792  -13.587002  -1.226704  0
10.121754  -13.335821  -1.083007  0
9.628527  -13.064520  -0.950469  0
9.128679  -12.778286  -0.828033  0
8.628370  -12.488224  -0.706496  0
8.134934  -12.202322  -0.579943  0
7.648675  -11.934073  -0.460190  0
7.164760  -11.697067  -0.360744  0
13.198296  -22.186874  -2.017855  0
12.842518  -21.943798  -1.870819  0
12.472132  -21.682487  -1.718710  0
12.074799  -21.414120  -1.584222  0
11.647646  -21.142771  -1.480931  0
11.212995  -20.865696  -1.392179  0
10.804049  -20.580702  -1.304305  0
10.471571  -20.281811  -1.207274  0
10.286324  -19.960304  -1.103295  0
10.236495  -19.619137  -0.997915  0
10.282823  -19.260183  -0.893925  0
10.392317  -18.884293  -0.791400  0
10.542966  -18.501377  -0.687062  0
10.715712  -18.126322  -0.591361  0
10.896458  -17.780287  -0.533956  0
11.111171  -17.486813  -0.555425  0
11.360700  -17.240707  -0.661240  0
11.644889  -17.040348  -0.849470  0
11.959274  -16.865345  -1.110766  0
12.285791  -16.675241  -1.408520  0
12.607146  -16.447567  -1.702776  0
12.903645  -16.156233  -1.954404  0
13.134741  -15.780155  -2.132827  0
13.203628  -15.353161  -2.167320  0
13.051020  -14.965629  -2.042681  0
12.778331  -14.667374  -1.844668  0
12.436856  -14.433801  -1.625192  0
12.054611  -14.249003  -1.408462  0
11.632263  -14.095859  -1.206037  0
11.148146  -13.933168  -1.033128  0
10.622133  -13.730927  -0.894711  0
10.089441  -13.487408  -0.780387  0
9.570413  -13.224056  -0.676501  0
9.059094  -12.954209  -0.578535  0
8.545342  -12.673803  -0.482679  0
8.041986  -12.394071  -0.379395  0
7.555129  -12.127898  -0.276594  0
12.758389  -22.506889  -1.754656  0
12.381139  -22.248022  -1.604068  0
11.977727  -21.972191  -1.465250  0
11.549526  -21.688118  -1.348832  0
11.110588  -21.399565  -1.250118  0
10.701509  -21.099682  -1.153412  0
10.378834  -20.788162  -1.046132  0
10.212263  -20.461870  -0.932440  0
10.221920  -20.118073  -0.825597  0
10.344911  -19.755932  -0.729877  0
10.540251  -19.371363  -0.637009  0
10.760571  -18.966593  -0.529261  0
10.967903  -18.556370  -0.403841  0
11.150830  -18.170969  -0.291810  0
11.340646  -17.839188  -0.244297  0
11.570397  -17.575027  -0.302962  0
11.839709  -17.357334  -0.454357  0
12.145016  -17.174572  -0.682168  0
12.473186  -16.998493  -0.961461  0
12.796453  -16.785990  -1.245542  0
13.102011  -16.524876  -1.502665  0
13.351400  -16.191814  -1.698571  0
13.482153  -15.780216  -1.799933  0
13.462005  -15.350986  -1.786326  0
13.252043  -14.982451  -1.652447  0
12.919934  -14.700933  -1.453136  0
12.529035  -14.481373  -1.236630  0
12.102489  -14.312206  -1.025918  0
11.645082  -14.175593  -0.836012  0
11.144358  -14.036459  -0.678711  0
10.600158  -13.850252  -0.564208  0
10.047941  -13.622373  -0.478672  0
9.501916  -13.368114  -0.405767  0
8.978458  -13.113596  -0.333431  0
8.457170  -12.850985  -0.265541  0
7.941937  -12.577235  -0.189724  0
12.288157  -22.810768  -1.505698  0
11.882520  -22.529552  -1.359961  0
11.452770  -22.232355  -1.232138  0
11.010854  -21.927177  -1.122048  0
10.593171  -21.615280  -1.014509  0
10.280957  -21.293701  -0.894131  0
10.131411  -20.964640  -0.765271  0
10.187433  -20.626625  -0.650566  0
10.387720  -20.269749  -0.563481  0
10.689106  -19.888493  -0.487622  0
10.998785  -19.472589  -0.386858  0
11.258152  -19.028036  -0.238113  0
11.435528  -18.594736  -0.058742  0
11.577714  -18.210184  0.077127  0
11.763182  -17.903728  0.091380  0
12.010141  -17.675425  -0.040049  0
12.303287  -17.485176  -0.262795  0
12.627306  -17.308451  -0.539042  0
12.958098  -17.111210  -0.821403  0
13.267740  -16.863140  -1.076882  0
13.540848  -16.562630  -1.285426  0
13.719549  -16.189991  -1.414643  0
13.765953  -15.759886  -1.454616  0
13.673306  -15.336914  -1.403720  0
13.406754  -14.988366  -1.254624  0
13.028689  -14.721985  -1.053029  0
12.590427  -14.519251  -0.840956  0
12.123524  -14.363667  -0.640655  0
11.625532  -14.237965  -0.467513  0
11.102216  -14.111105  -0.330529  0
10.553664  -13.948480  -0.236661  0
9.988252  -13.739631  -0.178405  0
9.426697  -13.500227  -0.134176  0
8.884146  -13.257547  -0.094869  0
8.356857  -13.013577  -0.054059  0
11.786909  -23.087063  -1.270824  0
11.356842  -22.779125  -1.130744  0
10.913916  -22.458244  -1.006287  0
10.498118  -22.131302  -0.885646  0
10.182601  -21.801823  -0.752012  0
10.061882  -21.474157  -0.606989  0
10.143681  -21.145887  -0.472949  0
10.435051  -20.806293  -0.384570  0
10.834149  -20.440466  -0.316487  0
11.252687  -20.027306  -0.229949  0
11.576119  -19.561050  -0.063788  0
11.749566  -19.078297  0.182314  0
11.828472  -18.629995  0.415551  0
11.944773  -18.257677  0.515757  0
12.156361  -18.000853  0.410266  0
12.437851  -17.809940  0.165566  0
12.756836  -17.636696  -0.132368  0
13.092748  -17.448742  -0.433793  0
13.416847  -17.215258  -0.701734  0
13.709798  -16.929131  -0.920618  0
13.933608  -16.578209  -1.064183  0
14.049333  -16.172770  -1.127465  0
14.027867  -15.734196  -1.111197  0
13.856327  -15.320093  -1.019153  0
13.538185  -14.983617  -0.853860  0
13.118726  -14.729362  -0.650194  0
12.637353  -14.542292  -0.440116  0
12.123646  -14.404997  -0.250092  0
11.589438  -14.291828  -0.096058  0
11.037005  -14.174874  0.014836  0
10.481263  -14.032295  0.085842  0
9.909706  -13.843417  0.119075  0
9.337960  -13.624894  0.131787  0
8.778996  -13.391070  0.141484  0
11.261870  -23.331726  -1.043752  0
10.820297  -22.996094  -0.905289  0
10.400290  -22.654415  -0.769539  0
10.096287  -22.317345  -0.621682  0
9.994081  -21.989632  -0.459299  0
10.116837  -21.671175  -0.307376  0
10.461883  -21.354601  -0.200318  0
10.944183  -21.012394  -0.121371  0
11.452650  -20.621292  -0.029500  0
11.833711  -20.152613  0.159787  0
12.007702  -19.633472  0.452593  0
12.054536  -19.134426  0.745779  0
12.126743  -18.700672  0.918765  0
12.294751  -18.376852  0.868536  0
12.552647  -18.156809  0.621017  0
12.864574  -17.989927  0.277580  0
13.205118  -17.819590  -0.073708  0
13.546818  -17.600370  -0.372935  0
13.863224  -17.325134  -0.609428  0
14.125421  -16.985197  -0.767489  0
14.303314  -16.587330  -0.843978  0
14.359009  -16.150434  -0.837006  0
14.266376  -15.707044  -0.760171  0
14.025660  -15.299482  -0.628942  0
13.654644  -14.969424  -0.449756  0
13.188913  -14.727710  -0.242991  0
12.657654  -14.563717  -0.034394  0
12.103831  -14.442888  0.144366  0
11.537121  -14.342150  0.278618  0
10.959170  -14.235684  0.361404  0
10.390178  -14.107250  0.406273  0
9.814054  -13.939183  0.412631  0
9.235710  -13.738411  0.396619  0
10.722232  -23.546434  -0.819401  0
10.304502  -23.190016  -0.666811  0
9.988600  -22.839464  -0.504296  0
9.919270  -22.513485  -0.326216  0
10.079575  -22.203840  -0.157181  0
10.467578  -21.905613  -0.026660  0
11.001093  -21.587704  0.077943  0
11.540380  -21.214151  0.209274  0
11.959915  -20.760603  0.427192  0
12.184476  -20.235594  0.746383  0
12.209845  -19.692163  1.079334  0
12.270121  -19.213257  1.289110  0
12.421972  -18.826452  1.304930  0
12.664331  -18.567600  1.066903  0
12.961996  -18.398510  0.668104  0
13.296051  -18.232325  0.264627  0
13.654895  -18.031199  -0.084372  0
14.002819  -17.767550  -0.349480  0
14.309950  -17.435684  -0.525732  0
14.542278  -17.040739  -0.612678  0
14.669282  -16.597095  -0.613058  0
14.658631  -16.131750  -0.532596  0
14.503611  -15.679313  -0.396853  0
14.194225  -15.278372  -0.226666  0
13.754547  -14.967306  -0.027686  0
13.229782  -14.737721  0.180232  0
12.657454  -14.586341  0.380982  0
12.062151  -14.482164  0.542618  0
11.466404  -14.393526  0.651150  0
10.868890  -14.297142  0.705060  0
10.285059  -14.181143  0.720339  0
9.699093  -14.026621  0.696939  0
10.204440  -23.743595  -0.580009  0
9.876470  -23.377728  -0.400235  0
9.784967  -23.037893  -0.203212  0
10.010824  -22.738720  -0.017429  0
10.434757  -22.455069  0.135096  0
11.001314  -22.158272  0.266583  0
11.556670  -21.802464  0.437408  0
11.968470  -21.358725  0.698959  0
12.210981  -20.838104  1.047021  0
12.281044  -20.278257  1.412246  0
12.351097  -19.756275  1.667151  0
12.510319  -19.314468  1.736900  0
12.758825  -19.035183  1.487428  0
13.049746  -18.862661  1.044617  0
13.374403  -18.712048  0.572519  0
13.738256  -18.522867  0.169784  0
14.116969  -18.268879  -0.136089  0
14.469229  -17.942120  -0.335483  0
14.754541  -17.544676  -0.432636  0
14.943964  -17.092129  -0.433107  0
15.007052  -16.606792  -0.345981  0
14.934065  -16.124119  -0.197247  0
14.712002  -15.670794  -0.002303  0
14.341138  -15.277582  0.202072  0
13.838735  -14.979099  0.414338  0
13.253117  -14.768646  0.620356  0
12.632819  -14.619192  0.804898  0
12.002651  -14.528854  0.941733  0
11.381927  -14.449495  1.016983  0
10.768908  -14.361054  1.038986  0
10.166919  -14.253076  1.022441  0
9.769871  -23.936756  -0.309818  0
9.676839  -23.583801  -0.094369  0
9.916800  -23.278889  0.111762  0
10.362272  -23.001328  0.287232  0
10.946569  -22.721455  0.445837  0
11.535281  -22.392685  0.638419  0
11.951815  -21.962366  0.940336  0
12.178037  -21.442038  1.329223  0
12.285891  -20.878241  1.727875  0
12.381076  -20.330919  2.021682  0
12.555070  -19.858749  2.122066  0
12.830985  -19.558775  1.859614  0
13.122379  -19.385057  1.371245  0
13.436140  -19.241173  0.847096  0
13.798759  -19.068851  0.391732  0
14.199157  -18.829044  0.051166  0
14.592644  -18.507750  -0.172570  0
14.935724  -18.109322  -0.289267  0
15.181122  -17.644243  -0.292614  0
15.305700  -17.137051  -0.196675  0
15.306940  -16.628119  -0.035147  0
15.155607  -16.145100  0.183685  0
14.885509  -15.693291  0.421386  0
14.461536  -15.305437  0.654949  0
13.901362  -15.014246  0.874588  0
13.258602  -14.822552  1.070642  0
12.591568  -14.686909  1.226920  0
11.930111  -14.588708  1.331721  0
11.288636  -14.513502  1.370227  0
10.661757  -14.430766  1.358259  0
9.539494  -24.139587  0.003638  0
9.794390  -23.825054  0.232334  0
10.257650  -23.546331  0.430469  0
10.846823  -23.277088  0.614458  0
11.449476  -22.969887  0.834063  0
11.915896  -22.569868  1.151298  0
12.145720  -22.053011  1.580973  0
12.269774  -21.486532  2.010392  0
12.388697  -20.930727  2.336194  0
12.582592  -20.438454  2.470929  0
12.882161  -20.132219  2.182789  0
13.179238  -19.942724  1.669981  0
13.483465  -19.801678  1.099942  0
13.842140  -19.640005  0.599145  0
14.256310  -19.420944  0.219814  0
14.682631  -19.116426  -0.024484  0
15.064650  -18.722464  -0.148356  0
15.366766  -18.247902  -0.163211  0
15.557163  -17.720879  -0.074564  0
15.614792  -17.182648  0.097963  0
15.525524  -16.672581  0.332687  0
15.299803  -16.206612  0.598908  0
14.974167  -15.775917  0.866031  0
14.512115  -15.395682  1.115813  0
13.915955  -15.096008  1.337643  0
13.234968  -14.903602  1.515189  0
12.536310  -14.771708  1.633196  0
11.852375  -14.673352  1.695630  0
11.190920  -14.590155  1.702070  0
9.685392  -24.380556  0.338860  0
10.128766  -24.089687  0.561974  0
10.710313  -23.821123  0.770793  0
11.314100  -23.532173  1.012547  0
11.816911  -23.165800  1.350416  0
12.092674  -22.670761  1.807602  0
12.237268  -22.102732  2.272458  0
12.388642  -21.547171  2.604673  0
12.618238  -21.068613  2.711227  0
12.920104  -20.740211  2.452224  0
13.212547  -20.534618  1.923021  0
13.505940  -20.382811  1.327043  0
13.859063  -20.225801  0.788742  0
14.286167  -20.021248  0.378889  0
14.739233  -19.731991  0.122165  0
15.159690  -19.354126  -0.011987  0
15.506637  -18.888849  -0.035872  0
15.748060  -18.351543  0.047764  0
15.869702  -17.785683  0.214430  0
15.827722  -17.242113  0.460602  0
15.644016  -16.751856  0.742655  0
15.356026  -16.310658  1.029983  0
14.971173  -15.907844  1.304894  0
14.472662  -15.544497  1.558068  0
13.861675  -15.240090  1.774488  0
13.172520  -15.023208  1.928481  0
12.461280  -14.875467  2.011408  0
11.762274  -14.768211  2.035490  0
9.983818  -24.632372  0.680178  0
10.546571  -24.355841  0.917006  0
11.134094  -24.071396  1.182897  0
11.652945  -23.733795  1.533590  0
12.001035  -23.287661  2.005311  0
12.173283  -22.728195  2.509336  0
12.349894  -22.159668  2.885127  0
12.630423  -21.685623  2.969975  0
12.948582  -21.362888  2.669275  0
13.232601  -21.144341  2.137654  0
13.513744  -20.976059  1.534125  0
13.856487  -20.813814  0.979268  0
14.289186  -20.619339  0.537201  0
14.768684  -20.342777  0.267155  0
15.221774  -19.981068  0.126490  0
15.595841  -19.523966  0.109365  0
15.882139  -19.000023  0.180080  0
16.056049  -18.429213  0.338055  0
16.084936  -17.851761  0.576844  0
15.945160  -17.323841  0.870145  0
15.681387  -16.861443  1.170122  0
15.344748  -16.442457  1.459974  0
14.904181  -16.065233  1.728298  0
14.374484  -15.715755  1.971546  0
13.755699  -15.407986  2.170635  0
13.072923  -15.166971  2.300921  0
12.359306  -14.997727  2.353010  0
10.363800  -24.886091  1.042811  0
10.946996  -24.603628  1.327573  0
11.456261  -24.277882  1.697489  0
11.837730  -23.872391  2.165799  0
12.074406  -23.361317  2.691707  0
12.279070  -22.790001  3.144641  0
12.615458  -22.296068  3.258420  0
12.969504  -21.979397  2.898264  0
13.246109  -21.756264  2.326188  0
13.512283  -21.574278  1.719292  0
13.841084  -21.403353  1.161538  0
14.275893  -21.207085  0.715976  0
14.770966  -20.943453  0.423471  0
15.250776  -20.590147  0.278478  0
15.655855  -20.148922  0.255689  0
15.972408  -19.639248  0.324760  0
16.183292  -19.079321  0.476891  0
16.267448  -18.496662  0.706211  0
16.197464  -17.933464  0.995575  0
15.979175  -17.431931  1.303976  0
15.655833  -16.991665  1.602341  0
15.264676  -16.593941  1.879863  0
14.793125  -16.230814  2.134756  0
14.237958  -15.888979  2.358606  0
13.616405  -15.576286  2.535040  0
12.943870  -15.313408  2.641600  0
10.741083  -25.124985  1.459508  0
11.270122  -24.814518  1.825070  0
11.671598  -24.443008  2.290622  0
11.951922  -23.989229  2.813259  0
12.217508  -23.470356  3.285517  0
12.592691  -22.968527  3.462961  0
12.977571  -22.612667  3.097964  0
13.253844  -22.370562  2.494673  0
13.509907  -22.172497  1.885526  0
13.819586  -21.990292  1.330696  0
14.245455  -21.793419  0.884443  0
14.752248  -21.538172  0.582082  0
15.260352  -21.197077  0.426307  0
15.699248  -20.769001  0.396137  0
16.035820  -20.264696  0.473593  0
16.271610  -19.716570  0.625791  0
16.389736  -19.142727  0.850101  0
16.377293  -18.570925  1.132074  0
16.231112  -18.033161  1.441927  0
15.948449  -17.556965  1.746884  0
15.581326  -17.134493  2.029891  0
15.144859  -16.750780  2.290239  0
14.648411  -16.394611  2.526080  0
14.073917  -16.057358  2.725017  0
13.449986  -15.737420  2.873636  0
11.064589  -25.334541  1.947175  0
11.501324  -24.986446  2.386588  0
11.828880  -24.589022  2.880582  0
12.128704  -24.143536  3.358906  0
12.543962  -23.673540  3.553280  0
12.959502  -23.281187  3.228049  0
13.250755  -22.993345  2.628771  0
13.498165  -22.771994  2.025711  0
13.800363  -22.573368  1.485852  0
14.212276  -22.370749  1.049372  0
14.717831  -22.125961  0.739502  0
15.245616  -21.796976  0.578173  0
15.717133  -21.378284  0.543034  0
16.087704  -20.885288  0.613361  0
16.351475  -20.342018  0.766731  0
16.495106  -19.774475  0.992003  0
16.514435  -19.206900  1.273735  0
16.422316  -18.657608  1.584538  0
16.201448  -18.151304  1.898182  0
15.875074  -17.692642  2.189272  0
15.456426  -17.284676  2.449651  0
14.988030  -16.909031  2.689055  0
14.465292  -16.555168  2.901451  0
13.884356  -16.216475  3.073067  0
11.328741  -25.513424  2.472546  0
11.707790  -25.147295  2.901734  0
12.045056  -24.762333  3.319153  0
12.455991  -24.357548  3.514236  0
12.898741  -23.959885  3.274206  0
13.214157  -23.626213  2.718630  0
13.467107  -23.372713  2.134613  0
13.768717  -23.155052  1.613666  0
14.174393  -22.943554  1.197839  0
14.675925  -22.700541  0.901219  0
15.213038  -22.388651  0.732932  0
15.717836  -21.987230  0.686820  0
16.122057  -21.500956  0.755111  0
16.408539  -20.958805  0.911064  0
16.585230  -20.393471  1.130957  0
16.640661  -19.826687  1.408640  0
16.575272  -19.279194  1.723907  0
16.399872  -18.760370  2.047023  0
16.122173  -18.279972  2.351664  0
15.748515  -17.838923  2.623964  0
15.300714  -17.434732  2.863586  0
