#!ascii version in FreeSurfer format (SUMA)
36002 72000
-11.282955  -21.010696  17.694328  0
-11.423178  -21.315071  17.289438  0
-11.551080  -21.626957  16.859699  0
-11.665911  -21.945011  16.407887  0
-11.768991  -22.270002  15.940137  0
-11.855562  -22.601440  15.455959  0
-11.927479  -22.935528  14.967938  0
-11.984661  -23.267668  14.479951  0
-12.022442  -23.601303  13.989748  0
-12.043528  -23.940132  13.496160  0
-12.049066  -24.273876  13.007032  0
-12.037468  -24.597324  12.525657  0
-12.004486  -24.908405  12.052578  0
-11.948050  -25.205841  11.590923  0
-11.870873  -25.488434  11.145958  0
-11.769455  -25.757008  10.719700  0
-11.649369  -26.013321  10.308466  0
-11.511023  -26.251474  9.913926  0
-11.355139  -26.468519  9.534520  0
-11.180756  -26.662319  9.169045  0
-10.991294  -26.831434  8.817817  0
-10.790484  -26.972506  8.483204  0
-10.572697  -27.090876  8.161572  0
-10.342059  -27.193237  7.850108  0
-10.098137  -27.277075  7.550557  0
-9.842530  -27.344366  7.263377  0
-9.572116  -27.395870  6.990986  0
-9.288917  -27.433430  6.734642  0
-8.998657  -27.459625  6.492727  0
-9.988941  -18.394587  20.231018  0
-10.197267  -18.695230  20.025541  0
-10.405798  -18.994602  19.790697  0
-10.609501  -19.288069  19.532272  0
-10.804106  -19.573954  19.250401  0
-10.988904  -19.856821  18.945379  0
-11.164355  -20.137646  18.620670  0
-11.324720  -20.417702  18.262154  0
-11.473372  -20.702103  17.872927  0
-11.610378  -20.989931  17.459906  0
-11.731344  -21.282642  17.015089  0
-11.842274  -21.579996  16.554007  0
-11.938235  -21.879066  16.076244  0
-12.017243  -22.189159  15.580503  0
-12.083337  -22.509558  15.073329  0
-12.137791  -22.832674  14.571651  0
-12.176129  -23.150553  14.071079  0
-12.197204  -23.469679  13.567341  0
-12.200991  -23.785858  13.065438  0
-12.187005  -24.093973  12.572076  0
-12.150604  -24.390358  12.092111  0
-12.091971  -24.673927  11.626429  0
-12.014402  -24.942247  11.179680  0
-11.918661  -25.195910  10.750995  0
-11.804054  -25.436827  10.338072  0
-11.672247  -25.659573  9.940427  0
-11.523335  -25.859501  9.558648  0
-11.359344  -26.036385  9.192277  0
-11.176565  -26.192780  8.838923  0
-10.984360  -26.324398  8.500170  0
-10.782002  -26.429428  8.178316  0
-10.563816  -26.519299  7.867759  0
-10.332710  -26.596605  7.566494  0
-10.089237  -26.658691  7.275921  0
-9.832022  -26.709528  6.997235  0
-9.559801  -26.747864  6.731186  0
-10.183701  -18.202599  20.440376  0
-10.396857  -18.488443  20.230835  0
-10.607445  -18.772089  19.995693  0
-10.809896  -19.051027  19.733715  0
-11.002203  -19.322090  19.449348  0
-11.182869  -19.589676  19.139656  0
-11.354161  -19.853680  18.806950  0
-11.512714  -20.116751  18.444162  0
-11.657758  -20.382940  18.048326  0
-11.786428  -20.651670  17.616333  0
-11.902872  -20.926443  17.159224  0
-12.005898  -21.206453  16.680820  0
-12.097757  -21.491554  16.191147  0
-12.175954  -21.780199  15.691280  0
-12.239855  -22.080397  15.178224  0
-12.290987  -22.387241  14.661438  0
-12.326246  -22.692043  14.148654  0
-12.343973  -22.998661  13.631481  0
-12.347204  -23.303070  13.119331  0
-12.330538  -23.596317  12.617373  0
-12.290817  -23.877228  12.132151  0
-12.230187  -24.146860  11.664731  0
-12.154078  -24.405365  11.214339  0
-12.062231  -24.647081  10.783556  0
-11.953459  -24.874157  10.368727  0
-11.828396  -25.087082  9.967999  0
-11.687206  -25.277113  9.582952  0
-11.530985  -25.439667  9.214329  0
-11.361893  -25.576836  8.862348  0
-11.176622  -25.696754  8.523540  0
-10.982502  -25.795868  8.198538  0
-10.780928  -25.872330  7.888313  0
-10.562866  -25.937019  7.588564  0
-10.334449  -25.993771  7.296440  0
-10.091914  -26.039888  7.013978  0
-10.383932  -18.000181  20.641489  0
-10.599007  -18.271259  20.428986  0
-10.806595  -18.539253  20.188839  0
-11.007251  -18.804609  19.926542  0
-11.198320  -19.062994  19.644087  0
-11.375239  -19.312902  19.332125  0
-11.542209  -19.562542  18.991993  0
-11.696609  -19.809702  18.618393  0
-11.839691  -20.060051  18.213753  0
-11.963804  -20.305624  17.770866  0
-12.071131  -20.556835  17.294930  0
-12.168114  -20.819918  16.803879  0
-12.254322  -21.092014  16.300343  0
-12.329374  -21.368942  15.789808  0
-12.392223  -21.651142  15.271357  0
-12.439911  -21.940296  14.747538  0
-12.471029  -22.231646  14.220560  0
-12.487070  -22.524813  13.694820  0
-12.487164  -22.817001  13.172986  0
-12.466817  -23.100380  12.663316  0
-12.426060  -23.369785  12.170904  0
-12.364052  -23.626087  11.702887  0
-12.289904  -23.872099  11.251210  0
-12.199813  -24.104872  10.817976  0
-12.096458  -24.323822  10.399941  0
-11.978547  -24.522964  9.998032  0
-11.845184  -24.701792  9.611556  0
-11.697763  -24.856649  9.240586  0
-11.537372  -24.986809  8.886025  0
-11.366398  -25.093508  8.547989  0
-11.180397  -25.180544  8.224534  0
-10.988647  -25.253654  7.911653  0
-10.787370  -25.307415  7.613004  0
-10.572830  -25.352392  7.322065  0
-10.582956  -17.784937  20.828579  0
-10.795420  -18.043550  20.609951  0
-10.999168  -18.296429  20.367331  0
-11.195976  -18.546574  20.103073  0
-11.384779  -18.792194  19.820419  0
-11.562718  -19.030121  19.514687  0
-11.724739  -19.258080  19.163963  0
-11.874332  -19.484350  18.772636  0
-12.011172  -19.713608  18.349537  0
-12.132406  -19.942373  17.898687  0
-12.236247  -20.175823  17.417627  0
-12.328483  -20.420795  16.918367  0
-12.410294  -20.676155  16.407621  0
-12.479654  -20.939548  15.886918  0
-12.538118  -21.211102  15.357590  0
-12.581228  -21.483740  14.828095  0
-12.608354  -21.764484  14.292175  0
-12.620747  -22.047455  13.755861  0
-12.620548  -22.329670  13.226915  0
-12.596334  -22.602985  12.710649  0
-12.551765  -22.864376  12.213328  0
-12.490830  -23.112228  11.740253  0
-12.418642  -23.348925  11.285683  0
-12.331505  -23.569191  10.851702  0
-12.232203  -23.779705  10.431361  0
-12.120063  -23.970116  10.027758  0
-11.993696  -24.137493  9.641294  0
-11.856037  -24.285244  9.269330  0
-11.706775  -24.411901  8.911803  0
-11.545898  -24.513571  8.572588  0
-11.373320  -24.590822  8.250000  0
-11.191558  -24.654743  7.938639  0
-11.002115  -24.702881  7.639583  0
-10.778428  -17.555998  21.007713  0
-10.986860  -17.802361  20.783447  0
-11.188072  -18.042112  20.539837  0
-11.381373  -18.276716  20.272898  0
-11.566450  -18.505207  19.985434  0
-11.741004  -18.723253  19.666582  0
-11.901838  -18.932987  19.305470  0
-12.049477  -19.139843  18.907158  0
-12.181586  -19.349182  18.471052  0
-12.298094  -19.565117  18.011026  0
-12.397955  -19.785233  17.524282  0
-12.486174  -20.014616  17.021675  0
-12.562500  -20.253729  16.505732  0
-12.627496  -20.498749  15.982621  0
-12.678223  -20.757521  15.443923  0
-12.717524  -21.019020  14.905313  0
-12.739088  -21.283222  14.365510  0
-12.748369  -21.556723  13.822886  0
-12.744450  -21.831459  13.286332  0
-12.718372  -22.096281  12.765476  0
-12.672978  -22.352594  12.261217  0
-12.611269  -22.594128  11.781834  0
-12.539753  -22.825796  11.321597  0
-12.456179  -23.040220  10.883954  0
-12.360510  -23.241943  10.461324  0
-12.254272  -23.426865  10.054670  0
-12.135933  -23.589308  9.666254  0
-12.006987  -23.730362  9.294221  0
-11.867878  -23.850121  8.938171  0
-11.716721  -23.946110  8.599236  0
-11.555317  -24.022575  8.274883  0
-11.385546  -24.081676  7.964339  0
-10.968652  -17.315094  21.176863  0
-11.173299  -17.548252  20.945961  0
-11.371187  -17.772793  20.695713  0
-11.562489  -17.990196  20.424694  0
-11.746161  -18.199068  20.129311  0
-11.918342  -18.394276  19.794891  0
-12.075323  -18.583187  19.419693  0
-12.218068  -18.772444  19.009878  0
-12.345948  -18.967016  18.572638  0
-12.455338  -19.170307  18.103497  0
-12.550671  -19.381163  17.612236  0
-12.633844  -19.597778  17.107559  0
-12.704964  -19.823143  16.590078  0
-12.764721  -20.057215  16.062325  0
-12.811945  -20.299738  15.523573  0
-12.845152  -20.548206  14.979565  0
-12.864115  -20.800463  14.436073  0
-12.870565  -21.059986  13.892547  0
-12.860765  -21.320948  13.354483  0
-12.832970  -21.577797  12.827992  0
-12.787212  -21.828077  12.317619  0
-12.727044  -22.066214  11.830584  0
-12.655897  -22.294086  11.364437  0
-12.573855  -22.506657  10.919841  0
-12.480961  -22.705091  10.492371  0
-12.379118  -22.886297  10.082779  0
-12.267862  -23.046200  9.691699  0
-12.147455  -23.185825  9.317429  0
-12.017125  -23.302485  8.961222  0
-11.877436  -23.397923  8.621346  0
-11.727135  -23.473309  8.297287  0
-11.152963  -17.053734  21.332642  0
-11.354760  -17.270678  21.092230  0
-11.551085  -17.480972  20.834366  0
-11.741180  -17.678070  20.551273  0
-11.921517  -17.863201  20.236055  0
-12.088442  -18.040071  19.885155  0
-12.240852  -18.214262  19.501629  0
-12.379725  -18.392250  19.091171  0
-12.500055  -18.574471  18.649872  0
-12.603972  -18.765087  18.179192  0
-12.694899  -18.965134  17.687923  0
-12.774045  -19.171335  17.183004  0
-12.840313  -19.383343  16.666542  0
-12.893274  -19.605343  16.135651  0
-12.934944  -19.834938  15.594949  0
-12.966017  -20.072004  15.050410  0
-12.981174  -20.312496  14.506134  0
-12.982887  -20.558617  13.962029  0
-12.970073  -20.806015  13.424396  0
-12.941398  -21.051872  12.896641  0
-12.895721  -21.296301  12.381297  0
-12.836288  -21.532644  11.885391  0
-12.764924  -21.755089  11.414497  0
-12.684868  -21.965771  10.963482  0
-12.593973  -22.162752  10.531757  0
-12.495482  -22.346485  10.115587  0
-12.389227  -22.510208  9.718975  0
-12.275369  -22.653406  9.340300  0
-12.153961  -22.772404  8.981571  0
-12.025060  -22.868986  8.640575  0
-11.330919  -16.757526  21.465561  0
-11.532427  -16.960903  21.216770  0
-11.728987  -17.152170  20.945251  0
-11.916473  -17.330172  20.645710  0
-12.092331  -17.499338  20.316935  0
-12.253396  -17.665363  19.955811  0
-12.399915  -17.831682  19.568129  0
-12.530114  -17.999109  19.152424  0
-12.644321  -18.172501  18.708431  0
-12.745605  -18.352741  18.243677  0
-12.830854  -18.542595  17.752874  0
-12.904866  -18.740389  17.246960  0
-12.966165  -18.942461  16.729273  0
-13.015342  -19.150690  16.199522  0
-13.053984  -19.366135  15.662415  0
-13.078989  -19.590302  15.118822  0
-13.091961  -19.818302  14.574959  0
-13.089727  -20.050940  14.031940  0
-13.074758  -20.287842  13.494599  0
-13.044991  -20.523380  12.965488  0
-13.000871  -20.758518  12.448136  0
-12.941160  -20.988955  11.948412  0
-12.870195  -21.209612  11.471361  0
-12.790503  -21.418432  11.014588  0
-12.702781  -21.617529  10.576077  0
-12.605914  -21.803320  10.156071  0
-12.501939  -21.973866  9.754213  0
-12.390791  -22.124397  9.371044  0
-12.273697  -22.252800  9.006917  0
-11.506260  -16.426815  21.573950  0
-11.706984  -16.611691  21.311035  0
-11.901882  -16.789314  21.026016  0
-12.085873  -16.956648  20.715441  0
-12.256561  -17.117355  20.378868  0
-12.409606  -17.274792  20.011095  0
-12.548677  -17.433403  19.619640  0
-12.672082  -17.594101  19.200901  0
-12.782021  -17.761639  18.758720  0
-12.877388  -17.933838  18.294235  0
-12.959068  -18.113085  17.808762  0
-13.028352  -18.302073  17.304159  0
-13.084410  -18.496778  16.782959  0
-13.129744  -18.696465  16.252705  0
-13.164692  -18.900860  15.717987  0
-13.186882  -19.109627  15.179036  0
-13.196486  -19.325039  14.637693  0
-13.193268  -19.545048  14.098779  0
-13.175244  -19.770285  13.562763  0
-13.143314  -19.997704  13.032787  0
-13.099031  -20.221151  12.516008  0
-13.042092  -20.440695  12.016213  0
-12.972267  -20.659414  11.533605  0
-12.893060  -20.868143  11.072019  0
-12.804108  -21.069813  10.628073  0
-12.709829  -21.259525  10.202374  0
-12.609708  -21.433945  9.796827  0
-12.500376  -21.595121  9.407883  0
-11.676897  -16.060619  21.647503  0
-11.875663  -16.235468  21.375731  0
-12.065844  -16.402781  21.080313  0
-12.244582  -16.563585  20.761473  0
-12.408281  -16.718821  20.418188  0
-12.556925  -16.871792  20.050255  0
-12.690639  -17.024252  19.660326  0
-12.806877  -17.177580  19.240801  0
-12.909847  -17.337961  18.797457  0
-13.001449  -17.505436  18.334705  0
-13.081801  -17.678173  17.856203  0
-13.146147  -17.854815  17.354692  0
-13.197712  -18.039932  16.833178  0
-13.239052  -18.231510  16.303024  0
-13.269530  -18.427277  15.768383  0
-13.289295  -18.626377  15.232215  0
-13.296759  -18.831039  14.694924  0
-13.291778  -19.039265  14.160599  0
-13.272269  -19.251163  13.627588  0
-13.241192  -19.468597  13.099159  0
-13.196128  -19.684940  12.582657  0
-13.140640  -19.896610  12.082784  0
-13.072194  -20.105261  11.601445  0
-12.992500  -20.305782  11.139412  0
-12.905881  -20.502882  10.691475  0
-12.811726  -20.699007  10.258258  0
-12.713999  -20.886650  9.843258  0
-11.842546  -15.673637  21.698797  0
-12.038498  -15.843457  21.419912  0
-12.223152  -16.004314  21.116272  0
-12.394074  -16.158487  20.789230  0
-12.550879  -16.307951  20.440323  0
-12.692802  -16.454681  20.071140  0
-12.819468  -16.600138  19.679689  0
-12.930519  -16.747604  19.262732  0
-13.029343  -16.900846  18.824896  0
-13.116655  -17.064171  18.364925  0
-13.193703  -17.234459  17.886871  0
-13.258090  -17.404709  17.392416  0
-13.307583  -17.578438  16.877007  0
-13.344790  -17.759483  16.348177  0
-13.372275  -17.945782  15.815758  0
-13.388772  -18.135508  15.282853  0
-13.393631  -18.330261  14.748897  0
-13.387211  -18.528292  14.217728  0
-13.368661  -18.730307  13.688848  0
-13.337311  -18.937210  13.164076  0
-13.293036  -19.144115  12.650496  0
-13.237360  -19.349236  12.150602  0
-13.169995  -19.545723  11.669775  0
-13.093597  -19.741972  11.204006  0
-13.009100  -19.930546  10.757280  0
-12.915767  -20.118916  10.324230  0
-12.005016  -15.283012  21.737240  0
-12.196248  -15.445372  21.448538  0
-12.373980  -15.598176  21.135880  0
-12.536854  -15.744083  20.802177  0
-12.684795  -15.886074  20.447348  0
-12.819271  -16.025892  20.075554  0
-12.939085  -16.164974  19.683525  0
-13.045269  -16.306646  19.269470  0
-13.140038  -16.452526  18.837456  0
-13.222998  -16.606537  18.382988  0
-13.296345  -16.771898  17.907423  0
-13.359677  -16.942173  17.415043  0
-13.409175  -17.111076  16.906570  0
-13.443773  -17.284845  16.381643  0
-13.468527  -17.462585  15.853213  0
-13.483073  -17.643120  15.324571  0
-13.487629  -17.826626  14.796278  0
-13.481879  -18.013821  14.270370  0
-13.464037  -18.204567  13.747664  0
-13.433558  -18.400251  13.227802  0
-13.390781  -18.599052  12.716248  0
-13.336308  -18.793571  12.218104  0
-13.270862  -18.984562  11.735402  0
-13.195272  -19.173050  11.269618  0
-13.111694  -19.358690  10.820399  0
-12.161301  -14.886693  21.752266  0
-12.346439  -15.039168  21.455353  0
-12.516724  -15.181578  21.137257  0
-12.670667  -15.318026  20.797802  0
-12.811420  -15.452960  20.440657  0
-12.937352  -15.587203  20.066067  0
-13.050137  -15.721709  19.673124  0
-13.150761  -15.858940  19.260506  0
-13.241476  -15.999822  18.831911  0
-13.322718  -16.145931  18.386412  0
-13.392773  -16.302456  17.916325  0
-13.453890  -16.467197  17.427662  0
-13.500689  -16.633427  16.921818  0
-13.534681  -16.802742  16.403002  0
-13.558104  -16.973215  15.880346  0
-13.572289  -17.146048  15.356850  0
-13.577260  -17.322897  14.833986  0
-13.572916  -17.501537  14.314020  0
-13.557550  -17.679314  13.799440  0
-13.528938  -17.860867  13.287056  0
-13.487988  -18.046696  12.780464  0
-13.435390  -18.234047  12.284298  0
-13.371935  -18.418020  11.801849  0
-13.299115  -18.598122  11.336078  0
-12.313673  -14.478507  21.749590  0
-12.490664  -14.619997  21.445663  0
-12.652741  -14.753868  21.123386  0
-12.799605  -14.884195  20.783087  0
-12.930655  -15.014634  20.423019  0
-13.048676  -15.145137  20.046135  0
-13.153727  -15.277168  19.650349  0
-13.249342  -15.411934  19.238499  0
-13.335163  -15.549149  18.810452  0
-13.412991  -15.690432  18.367435  0
-13.480928  -15.838064  17.903162  0
-13.539350  -15.992805  17.420938  0
-13.584406  -16.152893  16.921732  0
-13.617669  -16.316795  16.409023  0
-13.641838  -16.479654  15.895484  0
-13.656927  -16.644444  15.380625  0
-13.662748  -16.813992  14.864620  0
-13.659666  -16.986500  14.348774  0
-13.646347  -17.156115  13.839057  0
-13.620481  -17.324905  13.335724  0
-13.582045  -17.497307  12.836373  0
-13.532852  -17.668644  12.347017  0
-13.472089  -17.841515  11.869584  0
-12.461964  -14.061408  21.734737  0
-12.629408  -14.193951  21.423721  0
-12.781672  -14.323076  21.096985  0
-12.918286  -14.450052  20.753281  0
-13.039515  -14.575960  20.390163  0
-13.150393  -14.702302  20.012163  0
-13.249887  -14.830458  19.616446  0
-13.339957  -14.961274  19.202347  0
-13.422750  -15.093986  18.776096  0
-13.496422  -15.229265  18.333120  0
-13.562040  -15.371283  17.873360  0
-13.617768  -15.517086  17.399162  0
-13.661015  -15.668650  16.906078  0
-13.694884  -15.825933  16.402491  0
-13.720295  -15.982803  15.898680  0
-13.736980  -16.139297  15.393649  0
-13.744662  -16.298409  14.886909  0
-13.742924  -16.460695  14.378189  0
-13.731991  -16.625137  13.874010  0
-13.707630  -16.783714  13.376020  0
-13.672766  -16.943022  12.884158  0
-13.627400  -17.104181  12.401289  0
-12.601881  -13.639880  21.702572  0
-12.756140  -13.763162  21.384872  0
-12.896607  -13.886045  21.054991  0
-13.024527  -14.010347  20.708336  0
-13.140224  -14.132277  20.346243  0
-13.246505  -14.253683  19.971189  0
-13.341109  -14.376245  19.575111  0
-13.428088  -14.502913  19.161884  0
-13.506958  -14.631491  18.735622  0
-13.577847  -14.762166  18.295929  0
-13.639271  -14.898193  17.837839  0
-13.691741  -15.037733  17.366486  0
-13.733258  -15.180574  16.880009  0
-13.767788  -15.330173  16.386475  0
-13.794282  -15.482193  15.891464  0
-13.812459  -15.633081  15.394148  0
-13.822739  -15.783714  14.896193  0
-13.824205  -15.935392  14.397223  0
-13.812869  -16.088110  13.898078  0
-13.791990  -16.238062  13.405831  0
-13.761882  -16.387459  12.923114  0
-12.726625  -13.209051  21.651033  0
-12.871536  -13.327166  21.332596  0
-13.002581  -13.444701  21.000784  0
-13.125231  -13.563134  20.657524  0
-13.237901  -13.683451  20.299650  0
-13.340654  -13.802376  19.927061  0
-13.431202  -13.919279  19.531292  0
-13.512925  -14.039900  19.115866  0
-13.587012  -14.165491  18.687630  0
-13.653432  -14.292377  18.247213  0
-13.711166  -14.420628  17.790783  0
-13.760280  -14.553005  17.321617  0
-13.801579  -14.690536  16.843540  0
-13.835904  -14.834142  16.359093  0
-13.863004  -14.981371  15.872699  0
-13.882477  -15.128607  15.381828  0
-13.894249  -15.274300  14.889175  0
-13.896479  -15.416266  14.396635  0
-13.888317  -15.558861  13.907005  0
-13.871059  -15.699195  13.422992  0
-12.843369  -12.773295  21.590324  0
-12.977881  -12.887884  21.268196  0
-13.102962  -12.998246  20.939543  0
-13.220260  -13.111652  20.598015  0
-13.328890  -13.226654  20.243055  0
-13.427593  -13.342424  19.869656  0
-13.515062  -13.456630  19.473986  0
-13.590994  -13.569673  19.056984  0
-13.659714  -13.687989  18.626549  0
-13.722044  -13.809190  18.184689  0
-13.776678  -13.934528  17.730534  0
-13.823503  -14.064117  17.265612  0
-13.863783  -14.197838  16.794323  0
-13.898354  -14.338886  16.319275  0
-13.925086  -14.481175  15.838504  0
-13.945326  -14.622863  15.353245  0
-13.958061  -14.764116  14.866589  0
-13.962620  -14.903356  14.382059  0
-13.957915  -15.035872  13.900970  0
-12.950826  -12.339779  21.514378  0
-13.077486  -12.444922  21.193695  0
-13.196415  -12.549590  20.864042  0
-13.307903  -12.653233  20.525047  0
-13.410086  -12.757472  20.167850  0
-13.504341  -12.863439  19.793129  0
-13.587065  -12.972042  19.396202  0
-13.660535  -13.084484  18.982529  0
-13.725919  -13.199781  18.553310  0
-13.785057  -13.318314  18.113558  0
-13.835766  -13.440235  17.661024  0
-13.880754  -13.567791  17.199944  0
-13.920891  -13.700163  16.736290  0
-13.954101  -13.836564  16.265991  0
-13.982180  -13.974858  15.791483  0
-14.004204  -14.112354  15.315428  0
-14.019270  -14.252016  14.837418  0
-14.025063  -14.384623  14.356368  0
-13.046910  -11.898074  21.424284  0
-13.166569  -11.995728  21.102457  0
-13.279375  -12.092625  20.771645  0
-13.384203  -12.187517  20.429192  0
-13.481682  -12.283175  20.071333  0
-13.570761  -12.381373  19.696877  0
-13.650888  -12.484799  19.304626  0
-13.720185  -12.592005  18.892366  0
-13.782310  -12.705235  18.463411  0
-13.838766  -12.820252  18.026815  0
-13.888740  -12.938695  17.580778  0
-13.933245  -13.065880  17.125986  0
-13.972694  -13.197886  16.667334  0
-14.007084  -13.331604  16.203671  0
-14.036594  -13.468755  15.737921  0
-14.060102  -13.606537  15.268280  0
-14.076489  -13.740522  14.794130  0
-13.133063  -11.452346  21.319832  0
-13.245447  -11.541764  20.995434  0
-13.351921  -11.631189  20.662312  0
-13.451280  -11.719831  20.318235  0
-13.543701  -11.810175  19.959995  0
-13.628184  -11.903021  19.586014  0
-13.703408  -12.001576  19.192959  0
-13.771389  -12.102962  18.785660  0
-13.832659  -12.210192  18.363806  0
-13.888008  -12.324385  17.931610  0
-13.937205  -12.442095  17.491150  0
-13.981083  -12.565067  17.043095  0
-14.020795  -12.694715  16.589554  0
-14.056880  -12.830199  16.134434  0
-14.087637  -12.967052  15.675663  0
-14.112605  -13.104417  15.210364  0
-13.208378  -11.010893  21.200596  0
-13.315620  -11.092556  20.875271  0
-13.416504  -11.172635  20.541676  0
-13.509367  -11.254002  20.193310  0
-13.596379  -11.336366  19.833208  0
-13.676668  -11.421447  19.460016  0
-13.750118  -11.514474  19.072906  0
-13.817042  -11.616515  18.670174  0
-13.877979  -11.723337  18.255552  0
-13.931264  -11.837296  17.825268  0
-13.979704  -11.952415  17.388449  0
-14.024491  -12.069940  16.947611  0
-14.065754  -12.195351  16.504202  0
-14.103205  -12.327660  16.056261  0
-14.136169  -12.464063  15.605055  0
-13.274370  -10.571181  21.069523  0
-13.376553  -10.643755  20.742638  0
-13.472387  -10.716097  20.406979  0
-13.561377  -10.788956  20.059319  0
-13.644653  -10.866854  19.700987  0
-13.721279  -10.951669  19.329800  0
-13.791746  -11.042604  18.944420  0
-13.856724  -11.140144  18.543861  0
-13.916365  -11.242076  18.132524  0
-13.970011  -11.348055  17.709797  0
-14.019482  -11.461444  17.278751  0
-14.065834  -11.577600  16.846275  0
-14.108285  -11.697647  16.411448  0
-14.147164  -11.825433  15.970871  0
-13.334240  -10.123415  20.932812  0
-13.431332  -10.193232  20.604469  0
-13.522141  -10.262043  20.266518  0
-13.607097  -10.333582  19.919271  0
-13.685974  -10.410245  19.560562  0
-13.759796  -10.491674  19.189739  0
-13.828811  -10.573904  18.806484  0
-13.893305  -10.662590  18.411369  0
-13.952897  -10.755775  18.006004  0
-14.006828  -10.858069  17.589111  0
-14.057214  -10.967340  17.165731  0
-14.104342  -11.080420  16.738827  0
-14.148374  -11.199881  16.310484  0
-13.388353  -9.684735  20.792202  0
-13.481005  -9.750393  20.462219  0
-13.566799  -9.816793  20.122292  0
-13.647346  -9.884130  19.772799  0
-13.723495  -9.951793  19.413748  0
-13.796171  -10.022446  19.046761  0
-13.864950  -10.098831  18.669750  0
-13.929007  -10.183929  18.278885  0
-13.988864  -10.272442  17.878227  0
-14.043496  -10.366224  17.469069  0
-14.094008  -10.470136  17.051352  0
-14.141652  -10.582767  16.629587  0
-13.435122  -9.254031  20.644056  0
-13.523452  -9.314949  20.312496  0
-13.606653  -9.372799  19.971054  0
-13.685744  -9.430641  19.623226  0
-13.760407  -9.487102  19.268238  0
-13.831800  -9.550729  18.906696  0
-13.899199  -9.621604  18.532463  0
-13.963055  -9.703149  18.145298  0
-14.022936  -9.793173  17.747124  0
-14.078066  -9.884621  17.341988  0
-14.129146  -9.981548  16.932007  0
-13.478178  -8.810648  20.490442  0
-13.563843  -8.863305  20.157923  0
-13.645372  -8.913943  19.818357  0
-13.722827  -8.965753  19.473427  0
-13.795818  -9.020474  19.123419  0
-13.865285  -9.077923  18.764290  0
-13.931822  -9.144797  18.393957  0
-13.994939  -9.225063  18.009068  0
-14.054462  -9.314428  17.612904  0
-14.110436  -9.407990  17.211031  0
-13.520323  -8.370215  20.332211  0
-13.603873  -8.420422  20.002007  0
-13.682959  -8.468083  19.664469  0
-13.757518  -8.512320  19.322651  0
-13.828437  -8.557267  18.974525  0
-13.896347  -8.607653  18.617134  0
-13.961391  -8.671074  18.246902  0
-14.023799  -8.748302  17.864408  0
-14.083166  -8.835705  17.472839  0
-13.559307  -7.930835  20.168968  0
-13.640305  -7.977519  19.839882  0
-13.716110  -8.021378  19.503813  0
-13.788376  -8.063159  19.162273  0
-13.857738  -8.104652  18.814270  0
-13.924400  -8.150084  18.457710  0
-13.988939  -8.205544  18.092304  0
-14.051362  -8.276237  17.717194  0
-13.594549  -7.488320  19.999640  0
-13.672072  -7.531125  19.671816  0
-13.745670  -7.572595  19.337000  0
-13.816517  -7.611965  18.996151  0
-13.885060  -7.652191  18.650368  0
-13.951442  -7.696229  18.299049  0
-14.015540  -7.751839  17.939507  0
-13.627176  -7.050773  19.825485  0
-13.702457  -7.089703  19.499517  0
-13.774494  -7.125426  19.167519  0
-13.844377  -7.161795  18.831083  0
-13.911789  -7.205744  18.489956  0
-13.977333  -7.256481  18.143938  0
-13.657289  -6.627600  19.647736  0
-13.730844  -6.665471  19.325312  0
-13.802011  -6.704419  18.997759  0
-13.870557  -6.744328  18.666170  0
-13.936968  -6.788039  18.330784  0
-13.685724  -6.215230  19.469543  0
-13.757620  -6.253169  19.151226  0
-13.827530  -6.292289  18.827305  0
-13.895232  -6.331060  18.499763  0
-13.713701  -5.810694  19.293076  0
-13.784058  -5.846083  18.978500  0
-13.852788  -5.882186  18.658073  0
-13.740799  -5.415123  19.114574  0
-13.810019  -5.447555  18.804535  0
-13.767658  -5.026715  18.935833  0
-13.806404  -4.128129  18.619457  0
-13.859040  -4.005629  18.361080  0
-13.912272  -3.883280  18.096996  0
-13.966249  -3.762068  17.828035  0
-14.021435  -3.640548  17.554077  0
-14.078014  -3.522706  17.274971  0
-14.136524  -3.406328  16.990265  0
-14.197330  -3.292424  16.698965  0
-14.261071  -3.183597  16.399834  0
-14.328278  -3.080196  16.090277  0
-14.399452  -2.981081  15.769223  0
-14.474808  -2.887101  15.434530  0
-14.555256  -2.800314  15.083580  0
-14.641293  -2.722265  14.712782  0
-14.731459  -2.650777  14.328531  0
-14.825673  -2.589503  13.926970  0
-14.924079  -2.538732  13.507223  0
-15.025862  -2.498472  13.069805  0
-15.130738  -2.462946  12.616288  0
-15.238894  -2.431252  12.146165  0
-15.349931  -2.404570  11.653629  0
-15.462385  -2.375833  11.150503  0
-15.572616  -2.342466  10.647633  0
-15.679292  -2.303910  10.149350  0
-15.781042  -2.260687  9.658725  0
-15.876421  -2.216765  9.173195  0
-15.964136  -2.177341  8.693366  0
-16.044365  -2.136202  8.214251  0
-16.119091  -2.096020  7.730761  0
-16.183992  -2.060213  7.248277  0
-16.240496  -2.032455  6.762802  0
-16.287336  -2.012954  6.285601  0
-16.323334  -2.000410  5.818352  0
-16.346037  -1.995651  5.356143  0
-16.360895  -1.994925  4.897338  0
-16.366758  -1.998544  4.440727  0
-16.362547  -2.006579  3.982004  0
-16.349716  -2.020027  3.520154  0
-16.325895  -2.038862  3.056699  0
-16.292299  -2.061615  2.594404  0
-16.249241  -2.088113  2.135234  0
-16.195068  -2.116905  1.680548  0
-16.131199  -2.149465  1.229059  0
-16.059380  -2.185773  0.781172  0
-15.979461  -2.224400  0.337886  0
-15.893235  -2.265569  -0.101123  0
-15.799888  -2.308789  -0.535009  0
-15.699892  -2.354583  -0.963367  0
-15.592049  -2.401160  -1.386860  0
-15.476904  -2.446346  -1.804763  0
-15.356928  -2.487108  -2.214784  0
-15.233854  -2.524163  -2.615692  0
-15.107128  -2.554603  -3.004726  0
-14.977226  -2.582065  -3.385684  0
-14.844596  -2.607170  -3.758659  0
-14.710472  -2.628612  -4.123613  0
-14.573849  -2.645209  -4.478327  0
-14.435654  -2.658870  -4.824878  0
-14.292833  -2.669266  -5.162629  0
-13.518784  39.529732  5.545043  0
-13.561546  39.046249  5.958589  0
-13.602546  38.535553  6.363739  0
-13.641838  37.999756  6.757681  0
-13.680195  37.438461  7.137241  0
-13.717945  36.855240  7.503563  0
-13.754692  36.247841  7.854947  0
-13.789171  35.616772  8.195937  0
-13.820942  34.963566  8.530611  0
-13.850611  34.285927  8.863059  0
-13.877844  33.570484  9.198885  0
-13.898468  32.816761  9.530215  0
-13.917472  32.021660  9.863831  0
-13.934737  31.194120  10.199260  0
-13.950614  30.346725  10.538964  0
-13.961320  29.445862  10.889967  0
-13.970791  28.513393  11.247932  0
-13.977186  27.567234  11.602378  0
-13.982261  26.600763  11.954227  0
-13.988232  25.627096  12.300336  0
-13.995100  24.660147  12.636218  0
-14.001229  23.690578  12.960880  0
-14.006568  22.709488  13.277781  0
-14.011143  21.726913  13.583925  0
-14.014990  20.750839  13.876225  0
-14.016665  19.776083  14.149626  0
-14.016348  18.806730  14.408789  0
-14.013425  17.846268  14.656858  0
-14.008759  16.893623  14.890615  0
-14.002092  15.945724  15.114265  0
-13.993362  15.011116  15.326956  0
-13.984201  14.088376  15.524137  0
-13.974444  13.181271  15.712104  0
-13.963387  12.289965  15.893267  0
-13.951740  11.412149  16.063400  0
-13.939720  10.543234  16.224207  0
-13.927149  9.695704  16.376738  0
-13.914178  8.871511  16.521120  0
-13.901475  8.069194  16.658867  0
-13.888676  7.288643  16.791937  0
-13.875944  6.527932  16.921034  0
-13.863325  5.785476  17.047138  0
-13.851142  5.059903  17.170954  0
-13.839419  4.355855  17.291861  0
-13.828319  3.672493  17.410688  0
-13.817989  3.010615  17.526638  0
-13.809084  2.367137  17.638948  0
-13.801490  1.740904  17.747149  0
-13.795485  1.131983  17.851078  0
-13.790894  0.540252  17.950634  0
-13.787724  -0.034378  18.045677  0
-13.785844  -0.592670  18.136404  0
-13.785275  -1.136830  18.222408  0
-13.785673  -1.662894  18.304466  0
-13.787275  -2.176373  18.381235  0
-13.790314  -2.678146  18.451153  0
-13.794565  -3.169407  18.514008  0
-13.800020  -3.652271  18.570555  0
-13.721367  39.055206  5.463732  0
-13.761761  38.560829  5.874506  0
-13.800417  38.043198  6.275558  0
-13.837614  37.498177  6.664131  0
-13.873903  36.928913  7.038444  0
-13.909096  36.335762  7.397654  0
-13.942965  35.721100  7.744632  0
-13.974600  35.086632  8.082798  0
-14.004033  34.427803  8.415566  0
-14.030697  33.737358  8.746971  0
-14.054224  33.008480  9.078062  0
-14.074606  32.241550  9.408899  0
-14.092512  31.437756  9.740242  0
-14.108812  30.605684  10.075329  0
-14.120304  29.733801  10.418162  0
-14.129029  28.818726  10.771240  0
-14.135632  27.890736  11.125406  0
-14.139433  26.934933  11.476574  0
-14.143658  25.966930  11.823977  0
-14.147758  24.997086  12.163986  0
-14.151283  24.027401  12.493847  0
-14.154504  23.045990  12.815330  0
-14.156430  22.060461  13.126890  0
-14.156961  21.073988  13.427008  0
-14.155888  20.093151  13.711395  0
-14.153055  19.120129  13.978722  0
-14.146633  18.153725  14.233792  0
-14.138588  17.193596  14.479360  0
-14.128952  16.244551  14.712887  0
-14.117123  15.300861  14.933497  0
-14.104433  14.368981  15.141880  0
-14.091217  13.453314  15.338745  0
-14.076676  12.555674  15.525904  0
-14.061567  11.670133  15.704472  0
-14.045993  10.795646  15.873383  0
-14.029828  9.938601  16.032808  0
-14.013578  9.105488  16.184174  0
-13.997266  8.295117  16.328642  0
-13.981219  7.505955  16.467289  0
-13.965294  6.737218  16.601662  0
-13.949771  5.989168  16.732101  0
-13.934558  5.257431  16.860336  0
-13.919866  4.546197  16.985706  0
-13.906103  3.858239  17.107803  0
-13.893077  3.190434  17.227528  0
-13.881445  2.539580  17.343452  0
-13.871484  1.907030  17.454918  0
-13.862878  1.293371  17.562693  0
-13.856065  0.695697  17.666233  0
-13.850793  0.116144  17.764828  0
-13.847052  -0.444890  17.858458  0
-13.844799  -0.992906  17.947906  0
-13.843674  -1.521346  18.032913  0
-13.843908  -2.037846  18.112883  0
-13.845634  -2.543670  18.186163  0
-13.848855  -3.039210  18.251701  0
-13.853464  -3.525667  18.310055  0
-13.918871  38.547157  5.384325  0
-13.956376  38.041977  5.790616  0
-13.992498  37.513454  6.185552  0
-14.027687  36.961739  6.568810  0
-14.062093  36.387665  6.936905  0
-14.094378  35.788052  7.290982  0
-14.125563  35.169708  7.634681  0
-14.154861  34.531322  7.970731  0
-14.182179  33.863159  8.301796  0
-14.207325  33.159611  8.630360  0
-14.229057  32.416943  8.957601  0
-14.247855  31.637579  9.285009  0
-14.265125  30.827114  9.615271  0
-14.277988  29.976959  9.952050  0
-14.287100  29.085049  10.297786  0
-14.293623  28.174076  10.648497  0
-14.297709  27.241287  10.999029  0
-14.300373  26.284365  11.347385  0
-14.302198  25.315222  11.690128  0
-14.303558  24.342003  12.024163  0
-14.304344  23.362238  12.349056  0
-14.304150  22.376558  12.665794  0
-14.302005  21.386869  12.971757  0
-14.297931  20.397032  13.264347  0
-14.292052  19.416021  13.540793  0
-14.283412  18.448078  13.802765  0
-14.272203  17.482040  14.055927  0
-14.259261  16.526890  14.299367  0
-14.244623  15.580287  14.530272  0
-14.228738  14.640178  14.748231  0
-14.211793  13.715988  14.954418  0
-14.194200  12.811777  15.148671  0
-14.175693  11.919019  15.333619  0
-14.156331  11.040309  15.510100  0
-14.136508  10.176640  15.678032  0
-14.116543  9.335212  15.837337  0
-14.096918  8.516184  15.988646  0
-14.077415  7.719920  16.133827  0
-14.058130  6.943578  16.274242  0
-14.039238  6.189291  16.410511  0
-14.020839  5.454063  16.543386  0
-14.003090  4.735409  16.673508  0
-13.986360  4.041273  16.799824  0
-13.970638  3.369706  16.923065  0
-13.956072  2.712716  17.043276  0
-13.943083  2.073412  17.158978  0
-13.931914  1.456110  17.270233  0
-13.922518  0.853221  17.378143  0
-13.915111  0.267942  17.480555  0
-13.909349  -0.297577  17.577826  0
-13.905130  -0.846438  17.670918  0
-13.902178  -1.379058  17.759630  0
-13.901056  -1.898401  17.841970  0
-13.901450  -2.408441  17.918407  0
-13.903715  -2.908282  17.985813  0
-13.907411  -3.399456  18.045177  0
-14.110011  38.003189  5.304111  0
-14.145425  37.488358  5.704360  0
-14.179138  36.951759  6.092977  0
-14.212404  36.396023  6.470232  0
-14.244267  35.819237  6.833211  0
-14.274635  35.218700  7.184444  0
-14.303323  34.595924  7.525366  0
-14.330823  33.946938  7.858455  0
-14.356710  33.265377  8.186575  0
-14.380357  32.546772  8.510912  0
-14.400932  31.791321  8.833665  0
-14.419076  31.003246  9.158783  0
-14.434282  30.180859  9.489523  0
-14.444201  29.311459  9.828757  0
-14.451199  28.420317  10.174154  0
-14.455818  27.512409  10.522606  0
-14.457332  26.568609  10.870790  0
-14.457988  25.604919  11.214761  0
-14.457791  24.635113  11.551144  0
-14.456296  23.656952  11.879662  0
-14.453899  22.672787  12.200446  0
-14.449589  21.682722  12.512304  0
-14.442640  20.686840  12.811545  0
-14.433838  19.698135  13.095861  0
-14.422845  18.726215  13.365620  0
-14.409315  17.758837  13.624681  0
-14.393495  16.798777  13.875523  0
-14.375728  15.846484  14.116259  0
-14.356768  14.899858  14.344147  0
-14.336970  13.965233  14.558240  0
-14.315689  13.055288  14.760897  0
-14.293888  12.157915  14.953125  0
-14.271212  11.276573  15.136471  0
-14.247882  10.409096  15.311595  0
-14.224141  9.558898  15.479671  0
-14.200724  8.733265  15.639036  0
-14.177702  7.929164  15.791439  0
-14.154775  7.147109  15.938706  0
-14.132186  6.387065  16.081310  0
-14.110544  5.646285  16.219334  0
-14.089755  4.922082  16.354013  0
-14.069740  4.221852  16.485561  0
-14.050985  3.546114  16.613100  0
-14.033459  2.885707  16.737671  0
-14.016998  2.240098  16.859381  0
-14.002596  1.617844  16.975595  0
-13.990760  1.010931  17.086546  0
-13.980910  0.419483  17.192924  0
-13.972974  -0.150142  17.294079  0
-13.966964  -0.700084  17.389685  0
-13.962504  -1.236386  17.480679  0
-13.959794  -1.759266  17.565565  0
-13.958794  -2.272764  17.644056  0
-13.959581  -2.776507  17.714590  0
-13.962221  -3.272914  17.775953  0
-14.295172  37.422092  5.219905  0
-14.328952  36.903847  5.613209  0
-14.361076  36.363441  5.995754  0
-14.392282  35.807999  6.367748  0
-14.421956  35.228779  6.728282  0
-14.450351  34.622559  7.074683  0
-14.477637  33.990238  7.412128  0
-14.504126  33.327877  7.741982  0
-14.528958  32.631454  8.065557  0
-14.551258  31.897287  8.384509  0
-14.571022  31.131971  8.704876  0
-14.587927  30.334530  9.030690  0
-14.599540  29.490496  9.363844  0
-14.606867  28.620167  9.704337  0
-14.611883  27.729168  10.048500  0
-14.613850  26.809431  10.394644  0
-14.614401  25.862154  10.738808  0
-14.613358  24.898405  11.076843  0
-14.610222  23.925983  11.407337  0
-14.605643  22.943123  11.730799  0
-14.599171  21.954601  12.047549  0
-14.590051  20.958330  12.352161  0
-14.578680  19.960835  12.644581  0
-14.564932  18.984779  12.921793  0
-14.549183  18.017099  13.187151  0
-14.531132  17.056873  13.443348  0
-14.511009  16.101250  13.691313  0
-14.489082  15.148838  13.928585  0
-14.465683  14.207193  14.153107  0
-14.441323  13.287947  14.363642  0
-14.416252  12.386774  14.562608  0
-14.390364  11.501579  14.753341  0
-14.363514  10.632751  14.936119  0
-14.336266  9.777354  15.111937  0
-14.308866  8.944733  15.280138  0
-14.282114  8.134615  15.440229  0
-14.255558  7.347601  15.594304  0
-14.229403  6.581718  15.743265  0
-14.204220  5.834119  15.887341  0
-14.179987  5.105145  16.027451  0
-14.156431  4.400363  16.164730  0
-14.134280  3.718819  16.297701  0
-14.113712  3.056102  16.426558  0
-14.094328  2.408493  16.552706  0
-14.076401  1.778609  16.675280  0
-14.061207  1.167016  16.791515  0
-14.048681  0.570789  16.901821  0
-14.038571  -0.003965  17.006437  0
-14.030633  -0.556915  17.104733  0
-14.024512  -1.095705  17.197775  0
-14.020108  -1.620579  17.284756  0
-14.017648  -2.137236  17.365215  0
-14.017014  -2.645332  17.437958  0
-14.018501  -3.146697  17.500500  0
-14.474541  36.811382  5.128876  0
-14.506512  36.286987  5.513795  0
-14.538298  35.753792  5.891844  0
-14.568069  35.191906  6.257262  0
-14.596887  34.609543  6.613163  0
-14.624496  33.998058  6.958050  0
-14.651218  33.353764  7.291844  0
-14.676922  32.675446  7.616240  0
-14.700702  31.960155  7.932832  0
-14.722245  31.214287  8.248209  0
-14.740595  30.434473  8.569451  0
-14.754108  29.620361  8.898188  0
-14.762565  28.768795  9.233385  0
-14.768140  27.894991  9.574114  0
-14.770796  26.997498  9.916645  0
-14.771060  26.065897  10.260501  0
-14.769553  25.120922  10.599916  0
-14.765425  24.157408  10.931282  0
-14.759563  23.181442  11.256638  0
-14.751387  22.197699  11.574806  0
-14.740520  21.205194  11.885916  0
-14.726759  20.210041  12.184120  0
-14.710716  19.224991  12.470104  0
-14.692471  18.257683  12.741398  0
-14.672035  17.297455  13.003763  0
-14.649990  16.341797  13.257217  0
-14.625578  15.387112  13.502077  0
-14.599221  14.438409  13.735475  0
-14.571217  13.511229  13.956235  0
-14.542707  12.604166  14.163517  0
-14.513458  11.716566  14.361653  0
-14.483310  10.846970  14.551849  0
-14.452839  9.989709  14.734749  0
-14.422021  9.151343  14.910654  0
-14.391399  8.335701  15.078863  0
-14.361215  7.542480  15.239866  0
-14.331727  6.770963  15.394938  0
-14.302545  6.019074  15.546226  0
-14.274401  5.286029  15.693189  0
-14.247068  4.576931  15.836603  0
-14.221281  3.888700  15.975719  0
-14.197141  3.222080  16.110064  0
-14.174667  2.573678  16.240313  0
-14.153695  1.939978  16.367531  0
-14.135120  1.322691  16.489483  0
-14.119633  0.721872  16.604826  0
-14.106840  0.141210  16.713631  0
-14.096535  -0.416324  16.815371  0
-14.088749  -0.957640  16.910406  0
-14.082288  -1.485557  17.000568  0
-14.078025  -2.002519  17.082773  0
-14.076298  -2.515700  17.155855  0
-14.076402  -3.023023  17.220066  0
-14.647801  36.167973  5.027066  0
-14.680755  35.649460  5.406111  0
-14.712569  35.112370  5.776043  0
-14.742752  34.553173  6.137831  0
-14.771430  33.965046  6.489425  0
-14.798890  33.340961  6.829057  0
-14.825336  32.678764  7.156036  0
-14.850407  31.982231  7.473527  0
-14.873316  31.251509  7.786235  0
-14.892870  30.489235  8.102522  0
-14.907839  29.695318  8.426972  0
-14.918224  28.868786  8.758861  0
-14.924391  28.015457  9.097178  0
-14.927577  27.138117  9.437476  0
-14.928041  26.227968  9.777941  0
-14.925951  25.293289  10.117880  0
-14.921653  24.346485  10.450665  0
-14.914761  23.381895  10.775782  0
-14.905567  22.410915  11.096961  0
-14.893431  21.426199  11.411362  0
-14.878065  20.434990  11.716223  0
-14.859419  19.449528  12.008578  0
-14.838990  18.478226  12.288309  0
-14.816330  17.519629  12.555847  0
-14.791964  16.565447  12.816377  0
-14.765671  15.612024  13.066637  0
-14.737133  14.658297  13.307100  0
-14.706392  13.725803  13.535301  0
-14.674163  12.814193  13.751892  0
-14.641113  11.921558  13.959641  0
-14.607787  11.050097  14.157861  0
-14.573943  10.192501  14.348161  0
-14.540013  9.350281  14.530937  0
-14.506116  8.529211  14.706047  0
-14.472403  7.730300  14.874259  0
-14.439226  6.954693  15.036315  0
-14.406509  6.200503  15.193770  0
-14.374352  5.464300  15.347799  0
-14.343060  4.749334  15.497984  0
-14.313469  4.056445  15.643315  0
-14.285407  3.385145  15.784402  0
-14.259211  2.733842  15.920536  0
-14.235004  2.098372  16.052145  0
-14.213398  1.477092  16.178528  0
-14.194777  0.872182  16.298615  0
-14.179013  0.285859  16.412310  0
-14.166019  -0.277747  16.518492  0
-14.155834  -0.822939  16.616966  0
-14.147500  -1.354451  16.708879  0
-14.141507  -1.874614  16.792933  0
-14.137941  -2.390171  16.867477  0
-14.136315  -2.900331  16.933918  0
-14.819195  35.502075  4.916947  0
-14.853771  34.984821  5.288137  0
-14.886650  34.448509  5.651627  0
-14.917840  33.883633  6.005799  0
-14.947371  33.282715  6.350173  0
-14.974792  32.637753  6.680769  0
-15.000602  31.954590  6.999878  0
-15.024659  31.243626  7.314110  0
-15.044991  30.503040  7.629125  0
-15.061209  29.725870  7.949831  0
-15.073077  28.922714  8.278753  0
-15.080627  28.094805  8.614595  0
-15.084063  27.233711  8.954070  0
-15.084662  26.349174  9.293882  0
-15.082458  25.429880  9.632080  0
-15.077620  24.494999  9.965410  0
-15.070369  23.546312  10.291550  0
-15.060668  22.588411  10.612948  0
-15.047754  21.616880  10.929035  0
-15.031226  20.635096  11.238998  0
-15.011161  19.654619  11.538492  0
-14.988585  18.679672  11.824755  0
-14.964040  17.723183  12.098560  0
-14.937496  16.767225  12.363469  0
-14.908979  15.815976  12.620909  0
-14.878616  14.864948  12.868796  0
-14.845667  13.928276  13.105598  0
-14.810652  13.015304  13.328876  0
-14.774431  12.117849  13.544768  0
-14.737397  11.243549  13.752150  0
-14.700040  10.385118  13.950908  0
-14.662983  9.539730  14.141047  0
-14.625830  8.714699  14.323301  0
-14.588807  7.911988  14.498529  0
-14.551919  7.133033  14.667734  0
-14.515724  6.375445  14.831493  0
-14.480083  5.636531  14.991065  0
-14.444987  4.917572  15.147630  0
-14.411162  4.220718  15.300102  0
-14.379429  3.545214  15.447098  0
-14.349483  2.889266  15.589236  0
-14.321730  2.251993  15.726254  0
-14.296531  1.628041  15.857736  0
-14.274153  1.019379  15.983450  0
-14.255844  0.430855  16.099985  0
-14.239991  -0.139610  16.211056  0
-14.226824  -0.689938  16.314226  0
-14.216138  -1.226405  16.409550  0
-14.207975  -1.750793  16.495987  0
-14.202505  -2.269868  16.572666  0
-14.198973  -2.782743  16.640869  0
-14.990050  34.815723  4.799629  0
-15.025545  34.290817  5.160898  0
-15.060463  33.745872  5.515934  0
-15.093746  33.172867  5.861930  0
-15.123044  32.545410  6.194359  0
-15.150171  31.880161  6.515694  0
-15.175116  31.189018  6.832202  0
-15.196145  30.466301  7.147254  0
-15.213819  29.711388  7.466593  0
-15.227119  28.934032  7.793056  0
-15.236087  28.129833  8.126647  0
-15.240052  27.291567  8.465061  0
-15.240678  26.426733  8.805698  0
-15.238594  25.529953  9.144306  0
-15.233418  24.610664  9.477504  0
-15.225732  23.675562  9.804519  0
-15.215490  22.730776  10.125282  0
-15.202343  21.774212  10.441929  0
-15.185701  20.807926  10.753258  0
-15.164787  19.833683  11.057472  0
-15.140783  18.863628  11.350899  0
-15.114816  17.904661  11.633265  0
-15.086587  16.955408  11.901973  0
-15.056321  16.003056  12.164254  0
-15.024008  15.057011  12.418824  0
-14.988655  14.122295  12.664764  0
-14.951083  13.206194  12.896538  0
-14.912384  12.306604  13.119088  0
-14.872495  11.428920  13.333891  0
-14.831976  10.567517  13.540713  0
-14.791491  9.719431  13.739049  0
-14.751022  8.891057  13.929003  0
-14.710709  8.085751  14.111305  0
-14.670544  7.304205  14.286995  0
-14.630695  6.543664  14.457680  0
-14.591254  5.801256  14.624319  0
-14.552674  5.081916  14.786304  0
-14.515499  4.381442  14.943845  0
-14.480008  3.700228  15.096768  0
-14.446539  3.040478  15.244270  0
-14.415294  2.399409  15.386497  0
-14.386814  1.774397  15.522263  0
-14.360886  1.164684  15.652605  0
-14.338057  0.572078  15.776506  0
-14.319063  -0.002568  15.891559  0
-14.302386  -0.558773  16.000616  0
-14.289128  -1.100090  16.099321  0
-14.278595  -1.631136  16.188894  0
-14.270622  -2.154223  16.268892  0
-14.264874  -2.670686  16.339478  0
-15.159470  34.086334  4.669084  0
-15.197553  33.550713  5.022845  0
-15.233565  32.993935  5.369235  0
-15.266038  32.389660  5.702956  0
-15.295994  31.747854  6.026947  0
-15.322643  31.077667  6.344566  0
-15.345654  30.378948  6.659814  0
-15.364661  29.648832  6.978417  0
-15.379681  28.894619  7.302671  0
-15.389611  28.115398  7.634485  0
-15.394687  27.302731  7.971622  0
-15.395746  26.461018  8.311972  0
-15.393812  25.589529  8.652797  0
-15.388924  24.693924  8.987362  0
-15.380467  23.769884  9.314035  0
-15.369930  22.840633  9.635969  0
-15.356520  21.899067  9.951753  0
-15.339676  20.947588  10.263734  0
-15.319096  19.986624  10.569216  0
-15.294859  19.024988  10.866831  0
-15.267800  18.068050  11.156368  0
-15.238119  17.122444  11.432153  0
-15.206780  16.173775  11.698673  0
-15.173109  15.233940  11.958751  0
-15.135633  14.305928  12.209069  0
-15.096014  13.386272  12.449343  0
-15.054999  12.483589  12.681009  0
-15.012745  11.603662  12.903538  0
-14.969641  10.739735  13.117159  0
-14.926052  9.889576  13.323050  0
-14.882185  9.058438  13.521267  0
-14.838588  8.250978  13.710969  0
-14.795303  7.465770  13.893270  0
-14.752148  6.703303  14.070274  0
-14.709324  5.959561  14.243021  0
-14.666334  5.236074  14.413501  0
-14.625628  4.534077  14.576344  0
-14.586608  3.849453  14.734360  0
-14.549782  3.185517  14.886877  0
-14.515312  2.540932  15.033400  0
-14.483294  1.913900  15.173985  0
-14.454094  1.303590  15.308124  0
-14.427738  0.710534  15.436008  0
-14.404539  0.132331  15.557265  0
-14.383451  -0.428993  15.673933  0
-14.366735  -0.976313  15.777986  0
-14.353288  -1.512877  15.871625  0
-14.342591  -2.041365  15.955061  0
-14.334352  -2.562617  16.028002  0
-15.330862  33.321865  4.529289  0
-15.370123  32.771938  4.874973  0
-15.406553  32.190109  5.210811  0
-15.438873  31.567280  5.535138  0
-15.467387  30.917841  5.854070  0
-15.492493  30.241608  6.170062  0
-15.513561  29.536415  6.487035  0
-15.530227  28.810064  6.809563  0
-15.540474  28.050306  7.139033  0
-15.546923  27.263008  7.474482  0
-15.549099  26.450787  7.814356  0
-15.547954  25.606508  8.155439  0
-15.543076  24.734730  8.492092  0
-15.534581  23.828140  8.819244  0
-15.523587  22.913046  9.141255  0
-15.509460  21.989544  9.459064  0
-15.492606  21.051752  9.770668  0
-15.472639  20.107260  10.076743  0
-15.449175  19.161491  10.376253  0
-15.421888  18.213058  10.669201  0
-15.391836  17.270090  10.951857  0
-15.359278  16.326557  11.224324  0
-15.324373  15.390471  11.489209  0
-15.286380  14.467090  11.742233  0
-15.245848  13.549509  11.987510  0
-15.202893  12.647503  12.227589  0
-15.157913  11.768317  12.460440  0
-15.112425  10.902140  12.680803  0
-15.066132  10.048852  12.894637  0
-15.019633  9.217114  13.098576  0
-14.972672  8.406549  13.296239  0
-14.926302  7.618865  13.485304  0
-14.879820  6.853162  13.669337  0
-14.833801  6.109635  13.847734  0
-14.787860  5.384199  14.023199  0
-14.742893  4.679189  14.193907  0
