#!ascii version in FreeSurfer format (SUMA)
36002 72000
9123 9131 9124 0
9132 9124 9131 0
9124 9132 9125 0
9133 9125 9132 0
9125 9133 9126 0
9134 9126 9133 0
9126 9134 9127 0
9135 9127 9134 0
9127 9135 9128 0
7438 9128 9135 0
7438 7437 9128 0
9129 181 182 0
9136 9129 182 0
9129 9136 9130 0
9137 9130 9136 0
9130 9137 9131 0
9138 9131 9137 0
9131 9138 9132 0
9139 9132 9138 0
9132 9139 9133 0
9140 9133 9139 0
9133 9140 9134 0
9141 9134 9140 0
9134 9141 9135 0
7439 9135 9141 0
7439 7438 9135 0
9136 182 183 0
9142 9136 183 0
9136 9142 9137 0
9143 9137 9142 0
9137 9143 9138 0
9144 9138 9143 0
9138 9144 9139 0
9145 9139 9144 0
9139 9145 9140 0
9146 9140 9145 0
9140 9146 9141 0
7440 9141 9146 0
7440 7439 9141 0
9142 183 184 0
9147 9142 184 0
9142 9147 9143 0
9148 9143 9147 0
9143 9148 9144 0
9149 9144 9148 0
9144 9149 9145 0
9150 9145 9149 0
9145 9150 9146 0
7441 9146 9150 0
7441 7440 9146 0
9147 184 185 0
9151 9147 185 0
9147 9151 9148 0
9152 9148 9151 0
9148 9152 9149 0
9153 9149 9152 0
9149 9153 9150 0
7442 9150 9153 0
7442 7441 9150 0
9151 185 186 0
9154 9151 186 0
9151 9154 9152 0
9155 9152 9154 0
9152 9155 9153 0
7443 9153 9155 0
7443 7442 9153 0
9154 186 187 0
9156 9154 187 0
9154 9156 9155 0
7444 9155 9156 0
7444 7443 9155 0
9156 187 188 0
7445 9156 188 0
7445 7444 9156 0
188 6 7445 0
9216 1 9157 0
9275 9216 9157 0
9216 9275 9217 0
9276 9217 9275 0
9217 9276 9218 0
9277 9218 9276 0
9218 9277 9219 0
9278 9219 9277 0
9219 9278 9220 0
9279 9220 9278 0
9220 9279 9221 0
9280 9221 9279 0
9221 9280 9222 0
9281 9222 9280 0
9222 9281 9223 0
9282 9223 9281 0
9223 9282 9224 0
9283 9224 9282 0
9224 9283 9225 0
9284 9225 9283 0
9225 9284 9226 0
9285 9226 9284 0
9226 9285 9227 0
9286 9227 9285 0
9227 9286 9228 0
9287 9228 9286 0
9228 9287 9229 0
9288 9229 9287 0
9229 9288 9230 0
9289 9230 9288 0
9230 9289 9231 0
9290 9231 9289 0
9231 9290 9232 0
9291 9232 9290 0
9232 9291 9233 0
9292 9233 9291 0
9233 9292 9234 0
9293 9234 9292 0
9234 9293 9235 0
9294 9235 9293 0
9235 9294 9236 0
9295 9236 9294 0
9236 9295 9237 0
9296 9237 9295 0
9237 9296 9238 0
9297 9238 9296 0
9238 9297 9239 0
9298 9239 9297 0
9239 9298 9240 0
9299 9240 9298 0
9240 9299 9241 0
9300 9241 9299 0
9241 9300 9242 0
9301 9242 9300 0
9242 9301 9243 0
9302 9243 9301 0
9243 9302 9244 0
9303 9244 9302 0
9244 9303 9245 0
9304 9245 9303 0
9245 9304 9246 0
9305 9246 9304 0
9246 9305 9247 0
9306 9247 9305 0
9247 9306 9248 0
9307 9248 9306 0
9248 9307 9249 0
9308 9249 9307 0
9249 9308 9250 0
9309 9250 9308 0
9250 9309 9251 0
9310 9251 9309 0
9251 9310 9252 0
9311 9252 9310 0
9252 9311 9253 0
9312 9253 9311 0
9253 9312 9254 0
9313 9254 9312 0
9254 9313 9255 0
9314 9255 9313 0
9255 9314 9256 0
9315 9256 9314 0
9256 9315 9257 0
9316 9257 9315 0
9257 9316 9258 0
9317 9258 9316 0
9258 9317 9259 0
9318 9259 9317 0
9259 9318 9260 0
9319 9260 9318 0
9260 9319 9261 0
9320 9261 9319 0
9261 9320 9262 0
9321 9262 9320 0
9262 9321 9263 0
9322 9263 9321 0
9263 9322 9264 0
9323 9264 9322 0
9264 9323 9265 0
9324 9265 9323 0
9265 9324 9266 0
9325 9266 9324 0
9266 9325 9267 0
9326 9267 9325 0
9267 9326 9268 0
9327 9268 9326 0
9268 9327 9269 0
9328 9269 9327 0
9269 9328 9270 0
9329 9270 9328 0
9270 9329 9271 0
9330 9271 9329 0
9271 9330 9272 0
9331 9272 9330 0
9272 9331 9273 0
9332 9273 9331 0
9273 9332 9274 0
129 9274 9332 0
129 4 9274 0
9275 9157 9158 0
9333 9275 9158 0
9275 9333 9276 0
9334 9276 9333 0
9276 9334 9277 0
9335 9277 9334 0
9277 9335 9278 0
9336 9278 9335 0
9278 9336 9279 0
9337 9279 9336 0
9279 9337 9280 0
9338 9280 9337 0
9280 9338 9281 0
9339 9281 9338 0
9281 9339 9282 0
9340 9282 9339 0
9282 9340 9283 0
9341 9283 9340 0
9283 9341 9284 0
9342 9284 9341 0
9284 9342 9285 0
9343 9285 9342 0
9285 9343 9286 0
9344 9286 9343 0
9286 9344 9287 0
9345 9287 9344 0
9287 9345 9288 0
9346 9288 9345 0
9288 9346 9289 0
9347 9289 9346 0
9289 9347 9290 0
9348 9290 9347 0
9290 9348 9291 0
9349 9291 9348 0
9291 9349 9292 0
9350 9292 9349 0
9292 9350 9293 0
9351 9293 9350 0
9293 9351 9294 0
9352 9294 9351 0
9294 9352 9295 0
9353 9295 9352 0
9295 9353 9296 0
9354 9296 9353 0
9296 9354 9297 0
9355 9297 9354 0
9297 9355 9298 0
9356 9298 9355 0
9298 9356 9299 0
9357 9299 9356 0
9299 9357 9300 0
9358 9300 9357 0
9300 9358 9301 0
9359 9301 9358 0
9301 9359 9302 0
9360 9302 9359 0
9302 9360 9303 0
9361 9303 9360 0
9303 9361 9304 0
9362 9304 9361 0
9304 9362 9305 0
9363 9305 9362 0
9305 9363 9306 0
9364 9306 9363 0
9306 9364 9307 0
9365 9307 9364 0
9307 9365 9308 0
9366 9308 9365 0
9308 9366 9309 0
9367 9309 9366 0
9309 9367 9310 0
9368 9310 9367 0
9310 9368 9311 0
9369 9311 9368 0
9311 9369 9312 0
9370 9312 9369 0
9312 9370 9313 0
9371 9313 9370 0
9313 9371 9314 0
9372 9314 9371 0
9314 9372 9315 0
9373 9315 9372 0
9315 9373 9316 0
9374 9316 9373 0
9316 9374 9317 0
9375 9317 9374 0
9317 9375 9318 0
9376 9318 9375 0
9318 9376 9319 0
9377 9319 9376 0
9319 9377 9320 0
9378 9320 9377 0
9320 9378 9321 0
9379 9321 9378 0
9321 9379 9322 0
9380 9322 9379 0
9322 9380 9323 0
9381 9323 9380 0
9323 9381 9324 0
9382 9324 9381 0
9324 9382 9325 0
9383 9325 9382 0
9325 9383 9326 0
9384 9326 9383 0
9326 9384 9327 0
9385 9327 9384 0
9327 9385 9328 0
9386 9328 9385 0
9328 9386 9329 0
9387 9329 9386 0
9329 9387 9330 0
9388 9330 9387 0
9330 9388 9331 0
9389 9331 9388 0
9331 9389 9332 0
128 9332 9389 0
128 129 9332 0
9333 9158 9159 0
9390 9333 9159 0
9333 9390 9334 0
9391 9334 9390 0
9334 9391 9335 0
9392 9335 9391 0
9335 9392 9336 0
9393 9336 9392 0
9336 9393 9337 0
9394 9337 9393 0
9337 9394 9338 0
9395 9338 9394 0
9338 9395 9339 0
9396 9339 9395 0
9339 9396 9340 0
9397 9340 9396 0
9340 9397 9341 0
9398 9341 9397 0
9341 9398 9342 0
9399 9342 9398 0
9342 9399 9343 0
9400 9343 9399 0
9343 9400 9344 0
9401 9344 9400 0
9344 9401 9345 0
9402 9345 9401 0
9345 9402 9346 0
9403 9346 9402 0
9346 9403 9347 0
9404 9347 9403 0
9347 9404 9348 0
9405 9348 9404 0
9348 9405 9349 0
9406 9349 9405 0
9349 9406 9350 0
9407 9350 9406 0
9350 9407 9351 0
9408 9351 9407 0
9351 9408 9352 0
9409 9352 9408 0
9352 9409 9353 0
9410 9353 9409 0
9353 9410 9354 0
9411 9354 9410 0
9354 9411 9355 0
9412 9355 9411 0
9355 9412 9356 0
9413 9356 9412 0
9356 9413 9357 0
9414 9357 9413 0
9357 9414 9358 0
9415 9358 9414 0
9358 9415 9359 0
9416 9359 9415 0
9359 9416 9360 0
9417 9360 9416 0
9360 9417 9361 0
9418 9361 9417 0
9361 9418 9362 0
9419 9362 9418 0
9362 9419 9363 0
9420 9363 9419 0
9363 9420 9364 0
9421 9364 9420 0
9364 9421 9365 0
9422 9365 9421 0
9365 9422 9366 0
9423 9366 9422 0
9366 9423 9367 0
9424 9367 9423 0
9367 9424 9368 0
9425 9368 9424 0
9368 9425 9369 0
9426 9369 9425 0
9369 9426 9370 0
9427 9370 9426 0
9370 9427 9371 0
9428 9371 9427 0
9371 9428 9372 0
9429 9372 9428 0
9372 9429 9373 0
9430 9373 9429 0
9373 9430 9374 0
9431 9374 9430 0
9374 9431 9375 0
9432 9375 9431 0
9375 9432 9376 0
9433 9376 9432 0
9376 9433 9377 0
9434 9377 9433 0
9377 9434 9378 0
9435 9378 9434 0
9378 9435 9379 0
9436 9379 9435 0
9379 9436 9380 0
9437 9380 9436 0
9380 9437 9381 0
9438 9381 9437 0
9381 9438 9382 0
9439 9382 9438 0
9382 9439 9383 0
9440 9383 9439 0
9383 9440 9384 0
9441 9384 9440 0
9384 9441 9385 0
9442 9385 9441 0
9385 9442 9386 0
9443 9386 9442 0
9386 9443 9387 0
9444 9387 9443 0
9387 9444 9388 0
9445 9388 9444 0
9388 9445 9389 0
127 9389 9445 0
127 128 9389 0
9390 9159 9160 0
9446 9390 9160 0
9390 9446 9391 0
9447 9391 9446 0
9391 9447 9392 0
9448 9392 9447 0
9392 9448 9393 0
9449 9393 9448 0
9393 9449 9394 0
9450 9394 9449 0
9394 9450 9395 0
9451 9395 9450 0
9395 9451 9396 0
9452 9396 9451 0
9396 9452 9397 0
9453 9397 9452 0
9397 9453 9398 0
9454 9398 9453 0
9398 9454 9399 0
9455 9399 9454 0
9399 9455 9400 0
9456 9400 9455 0
9400 9456 9401 0
9457 9401 9456 0
9401 9457 9402 0
9458 9402 9457 0
9402 9458 9403 0
9459 9403 9458 0
9403 9459 9404 0
9460 9404 9459 0
9404 9460 9405 0
9461 9405 9460 0
9405 9461 9406 0
9462 9406 9461 0
9406 9462 9407 0
9463 9407 9462 0
9407 9463 9408 0
9464 9408 9463 0
9408 9464 9409 0
9465 9409 9464 0
9409 9465 9410 0
9466 9410 9465 0
9410 9466 9411 0
9467 9411 9466 0
9411 9467 9412 0
9468 9412 9467 0
9412 9468 9413 0
9469 9413 9468 0
9413 9469 9414 0
9470 9414 9469 0
9414 9470 9415 0
9471 9415 9470 0
9415 9471 9416 0
9472 9416 9471 0
9416 9472 9417 0
9473 9417 9472 0
9417 9473 9418 0
9474 9418 9473 0
9418 9474 9419 0
9475 9419 9474 0
9419 9475 9420 0
9476 9420 9475 0
9420 9476 9421 0
9477 9421 9476 0
9421 9477 9422 0
9478 9422 9477 0
9422 9478 9423 0
9479 9423 9478 0
9423 9479 9424 0
9480 9424 9479 0
9424 9480 9425 0
9481 9425 9480 0
9425 9481 9426 0
9482 9426 9481 0
9426 9482 9427 0
9483 9427 9482 0
9427 9483 9428 0
9484 9428 9483 0
9428 9484 9429 0
9485 9429 9484 0
9429 9485 9430 0
9486 9430 9485 0
9430 9486 9431 0
9487 9431 9486 0
9431 9487 9432 0
9488 9432 9487 0
9432 9488 9433 0
9489 9433 9488 0
9433 9489 9434 0
9490 9434 9489 0
9434 9490 9435 0
9491 9435 9490 0
9435 9491 9436 0
9492 9436 9491 0
9436 9492 9437 0
9493 9437 9492 0
9437 9493 9438 0
9494 9438 9493 0
9438 9494 9439 0
9495 9439 9494 0
9439 9495 9440 0
9496 9440 9495 0
9440 9496 9441 0
9497 9441 9496 0
9441 9497 9442 0
9498 9442 9497 0
9442 9498 9443 0
9499 9443 9498 0
9443 9499 9444 0
9500 9444 9499 0
9444 9500 9445 0
126 9445 9500 0
126 127 9445 0
9446 9160 9161 0
9501 9446 9161 0
9446 9501 9447 0
9502 9447 9501 0
9447 9502 9448 0
9503 9448 9502 0
9448 9503 9449 0
9504 9449 9503 0
9449 9504 9450 0
9505 9450 9504 0
9450 9505 9451 0
9506 9451 9505 0
9451 9506 9452 0
9507 9452 9506 0
9452 9507 9453 0
9508 9453 9507 0
9453 9508 9454 0
9509 9454 9508 0
9454 9509 9455 0
9510 9455 9509 0
9455 9510 9456 0
9511 9456 9510 0
9456 9511 9457 0
9512 9457 9511 0
9457 9512 9458 0
9513 9458 9512 0
9458 9513 9459 0
9514 9459 9513 0
9459 9514 9460 0
9515 9460 9514 0
9460 9515 9461 0
9516 9461 9515 0
9461 9516 9462 0
9517 9462 9516 0
9462 9517 9463 0
9518 9463 9517 0
9463 9518 9464 0
9519 9464 9518 0
9464 9519 9465 0
9520 9465 9519 0
9465 9520 9466 0
9521 9466 9520 0
9466 9521 9467 0
9522 9467 9521 0
9467 9522 9468 0
9523 9468 9522 0
9468 9523 9469 0
9524 9469 9523 0
9469 9524 9470 0
9525 9470 9524 0
9470 9525 9471 0
9526 9471 9525 0
9471 9526 9472 0
9527 9472 9526 0
9472 9527 9473 0
9528 9473 9527 0
9473 9528 9474 0
9529 9474 9528 0
9474 9529 9475 0
9530 9475 9529 0
9475 9530 9476 0
9531 9476 9530 0
9476 9531 9477 0
9532 9477 9531 0
9477 9532 9478 0
9533 9478 9532 0
9478 9533 9479 0
9534 9479 9533 0
9479 9534 9480 0
9535 9480 9534 0
9480 9535 9481 0
9536 9481 9535 0
9481 9536 9482 0
9537 9482 9536 0
9482 9537 9483 0
9538 9483 9537 0
9483 9538 9484 0
9539 9484 9538 0
9484 9539 9485 0
9540 9485 9539 0
9485 9540 9486 0
9541 9486 9540 0
9486 9541 9487 0
9542 9487 9541 0
9487 9542 9488 0
9543 9488 9542 0
9488 9543 9489 0
9544 9489 9543 0
9489 9544 9490 0
9545 9490 9544 0
9490 9545 9491 0
9546 9491 9545 0
9491 9546 9492 0
9547 9492 9546 0
9492 9547 9493 0
9548 9493 9547 0
9493 9548 9494 0
9549 9494 9548 0
9494 9549 9495 0
9550 9495 9549 0
9495 9550 9496 0
9551 9496 9550 0
9496 9551 9497 0
9552 9497 9551 0
9497 9552 9498 0
9553 9498 9552 0
9498 9553 9499 0
9554 9499 9553 0
9499 9554 9500 0
125 9500 9554 0
125 126 9500 0
9501 9161 9162 0
9555 9501 9162 0
9501 9555 9502 0
9556 9502 9555 0
9502 9556 9503 0
9557 9503 9556 0
9503 9557 9504 0
9558 9504 9557 0
9504 9558 9505 0
9559 9505 9558 0
9505 9559 9506 0
9560 9506 9559 0
9506 9560 9507 0
9561 9507 9560 0
9507 9561 9508 0
9562 9508 9561 0
9508 9562 9509 0
9563 9509 9562 0
9509 9563 9510 0
9564 9510 9563 0
9510 9564 9511 0
9565 9511 9564 0
9511 9565 9512 0
9566 9512 9565 0
9512 9566 9513 0
9567 9513 9566 0
9513 9567 9514 0
9568 9514 9567 0
9514 9568 9515 0
9569 9515 9568 0
9515 9569 9516 0
9570 9516 9569 0
9516 9570 9517 0
9571 9517 9570 0
9517 9571 9518 0
9572 9518 9571 0
9518 9572 9519 0
9573 9519 9572 0
9519 9573 9520 0
9574 9520 9573 0
9520 9574 9521 0
9575 9521 9574 0
9521 9575 9522 0
9576 9522 9575 0
9522 9576 9523 0
9577 9523 9576 0
9523 9577 9524 0
9578 9524 9577 0
9524 9578 9525 0
9579 9525 9578 0
9525 9579 9526 0
9580 9526 9579 0
9526 9580 9527 0
9581 9527 9580 0
9527 9581 9528 0
9582 9528 9581 0
9528 9582 9529 0
9583 9529 9582 0
9529 9583 9530 0
9584 9530 9583 0
9530 9584 9531 0
9585 9531 9584 0
9531 9585 9532 0
9586 9532 9585 0
9532 9586 9533 0
9587 9533 9586 0
9533 9587 9534 0
9588 9534 9587 0
9534 9588 9535 0
9589 9535 9588 0
9535 9589 9536 0
9590 9536 9589 0
9536 9590 9537 0
9591 9537 9590 0
9537 9591 9538 0
9592 9538 9591 0
9538 9592 9539 0
9593 9539 9592 0
9539 9593 9540 0
9594 9540 9593 0
9540 9594 9541 0
9595 9541 9594 0
9541 9595 9542 0
9596 9542 9595 0
9542 9596 9543 0
9597 9543 9596 0
9543 9597 9544 0
9598 9544 9597 0
9544 9598 9545 0
9599 9545 9598 0
9545 9599 9546 0
9600 9546 9599 0
9546 9600 9547 0
9601 9547 9600 0
9547 9601 9548 0
9602 9548 9601 0
9548 9602 9549 0
9603 9549 9602 0
9549 9603 9550 0
9604 9550 9603 0
9550 9604 9551 0
9605 9551 9604 0
9551 9605 9552 0
9606 9552 9605 0
9552 9606 9553 0
9607 9553 9606 0
9553 9607 9554 0
124 9554 9607 0
124 125 9554 0
9555 9162 9163 0
9608 9555 9163 0
9555 9608 9556 0
9609 9556 9608 0
9556 9609 9557 0
9610 9557 9609 0
9557 9610 9558 0
9611 9558 9610 0
9558 9611 9559 0
9612 9559 9611 0
9559 9612 9560 0
9613 9560 9612 0
9560 9613 9561 0
9614 9561 9613 0
9561 9614 9562 0
9615 9562 9614 0
9562 9615 9563 0
9616 9563 9615 0
9563 9616 9564 0
9617 9564 9616 0
9564 9617 9565 0
9618 9565 9617 0
9565 9618 9566 0
9619 9566 9618 0
9566 9619 9567 0
9620 9567 9619 0
9567 9620 9568 0
9621 9568 9620 0
9568 9621 9569 0
9622 9569 9621 0
9569 9622 9570 0
9623 9570 9622 0
9570 9623 9571 0
9624 9571 9623 0
9571 9624 9572 0
9625 9572 9624 0
9572 9625 9573 0
9626 9573 9625 0
9573 9626 9574 0
9627 9574 9626 0
9574 9627 9575 0
9628 9575 9627 0
9575 9628 9576 0
9629 9576 9628 0
9576 9629 9577 0
9630 9577 9629 0
9577 9630 9578 0
9631 9578 9630 0
9578 9631 9579 0
9632 9579 9631 0
9579 9632 9580 0
9633 9580 9632 0
9580 9633 9581 0
9634 9581 9633 0
9581 9634 9582 0
9635 9582 9634 0
9582 9635 9583 0
9636 9583 9635 0
9583 9636 9584 0
9637 9584 9636 0
9584 9637 9585 0
9638 9585 9637 0
9585 9638 9586 0
9639 9586 9638 0
9586 9639 9587 0
9640 9587 9639 0
9587 9640 9588 0
9641 9588 9640 0
9588 9641 9589 0
9642 9589 9641 0
9589 9642 9590 0
9643 9590 9642 0
9590 9643 9591 0
9644 9591 9643 0
9591 9644 9592 0
9645 9592 9644 0
9592 9645 9593 0
9646 9593 9645 0
9593 9646 9594 0
9647 9594 9646 0
9594 9647 9595 0
9648 9595 9647 0
9595 9648 9596 0
9649 9596 9648 0
9596 9649 9597 0
9650 9597 9649 0
9597 9650 9598 0
9651 9598 9650 0
9598 9651 9599 0
9652 9599 9651 0
9599 9652 9600 0
9653 9600 9652 0
9600 9653 9601 0
9654 9601 9653 0
9601 9654 9602 0
9655 9602 9654 0
9602 9655 9603 0
9656 9603 9655 0
9603 9656 9604 0
9657 9604 9656 0
9604 9657 9605 0
9658 9605 9657 0
9605 9658 9606 0
9659 9606 9658 0
9606 9659 9607 0
123 9607 9659 0
123 124 9607 0
9608 9163 9164 0
9660 9608 9164 0
9608 9660 9609 0
9661 9609 9660 0
9609 9661 9610 0
9662 9610 9661 0
9610 9662 9611 0
9663 9611 9662 0
9611 9663 9612 0
9664 9612 9663 0
9612 9664 9613 0
9665 9613 9664 0
9613 9665 9614 0
9666 9614 9665 0
9614 9666 9615 0
9667 9615 9666 0
9615 9667 9616 0
9668 9616 9667 0
9616 9668 9617 0
9669 9617 9668 0
9617 9669 9618 0
9670 9618 9669 0
9618 9670 9619 0
9671 9619 9670 0
9619 9671 9620 0
9672 9620 9671 0
9620 9672 9621 0
9673 9621 9672 0
9621 9673 9622 0
9674 9622 9673 0
9622 9674 9623 0
9675 9623 9674 0
9623 9675 9624 0
9676 9624 9675 0
9624 9676 9625 0
9677 9625 9676 0
9625 9677 9626 0
9678 9626 9677 0
9626 9678 9627 0
9679 9627 9678 0
9627 9679 9628 0
9680 9628 9679 0
9628 9680 9629 0
9681 9629 9680 0
9629 9681 9630 0
9682 9630 9681 0
9630 9682 9631 0
9683 9631 9682 0
9631 9683 9632 0
9684 9632 9683 0
9632 9684 9633 0
9685 9633 9684 0
9633 9685 9634 0
9686 9634 9685 0
9634 9686 9635 0
9687 9635 9686 0
9635 9687 9636 0
9688 9636 9687 0
9636 9688 9637 0
9689 9637 9688 0
9637 9689 9638 0
9690 9638 9689 0
9638 9690 9639 0
9691 9639 9690 0
9639 9691 9640 0
9692 9640 9691 0
9640 9692 9641 0
9693 9641 9692 0
9641 9693 9642 0
9694 9642 9693 0
9642 9694 9643 0
9695 9643 9694 0
9643 9695 9644 0
9696 9644 9695 0
9644 9696 9645 0
9697 9645 9696 0
9645 9697 9646 0
9698 9646 9697 0
9646 9698 9647 0
9699 9647 9698 0
9647 9699 9648 0
9700 9648 9699 0
9648 9700 9649 0
9701 9649 9700 0
9649 9701 9650 0
9702 9650 9701 0
9650 9702 9651 0
9703 9651 9702 0
9651 9703 9652 0
9704 9652 9703 0
9652 9704 9653 0
9705 9653 9704 0
9653 9705 9654 0
9706 9654 9705 0
9654 9706 9655 0
9707 9655 9706 0
9655 9707 9656 0
9708 9656 9707 0
9656 9708 9657 0
9709 9657 9708 0
9657 9709 9658 0
9710 9658 9709 0
9658 9710 9659 0
122 9659 9710 0
122 123 9659 0
9660 9164 9165 0
9711 9660 9165 0
9660 9711 9661 0
9712 9661 9711 0
9661 9712 9662 0
9713 9662 9712 0
9662 9713 9663 0
9714 9663 9713 0
9663 9714 9664 0
9715 9664 9714 0
9664 9715 9665 0
9716 9665 9715 0
9665 9716 9666 0
9717 9666 9716 0
9666 9717 9667 0
9718 9667 9717 0
9667 9718 9668 0
9719 9668 9718 0
9668 9719 9669 0
9720 9669 9719 0
9669 9720 9670 0
9721 9670 9720 0
9670 9721 9671 0
9722 9671 9721 0
9671 9722 9672 0
9723 9672 9722 0
9672 9723 9673 0
9724 9673 9723 0
9673 9724 9674 0
9725 9674 9724 0
9674 9725 9675 0
9726 9675 9725 0
9675 9726 9676 0
9727 9676 9726 0
9676 9727 9677 0
9728 9677 9727 0
9677 9728 9678 0
9729 9678 9728 0
9678 9729 9679 0
9730 9679 9729 0
9679 9730 9680 0
9731 9680 9730 0
9680 9731 9681 0
9732 9681 9731 0
9681 9732 9682 0
9733 9682 9732 0
9682 9733 9683 0
9734 9683 9733 0
9683 9734 9684 0
9735 9684 9734 0
9684 9735 9685 0
9736 9685 9735 0
9685 9736 9686 0
9737 9686 9736 0
9686 9737 9687 0
9738 9687 9737 0
9687 9738 9688 0
9739 9688 9738 0
9688 9739 9689 0
9740 9689 9739 0
9689 9740 9690 0
9741 9690 9740 0
9690 9741 9691 0
9742 9691 9741 0
9691 9742 9692 0
9743 9692 9742 0
9692 9743 9693 0
9744 9693 9743 0
9693 9744 9694 0
9745 9694 9744 0
9694 9745 9695 0
9746 9695 9745 0
9695 9746 9696 0
9747 9696 9746 0
9696 9747 9697 0
9748 9697 9747 0
9697 9748 9698 0
9749 9698 9748 0
9698 9749 9699 0
9750 9699 9749 0
9699 9750 9700 0
9751 9700 9750 0
9700 9751 9701 0
9752 9701 9751 0
9701 9752 9702 0
9753 9702 9752 0
9702 9753 9703 0
9754 9703 9753 0
9703 9754 9704 0
9755 9704 9754 0
9704 9755 9705 0
9756 9705 9755 0
9705 9756 9706 0
9757 9706 9756 0
9706 9757 9707 0
9758 9707 9757 0
9707 9758 9708 0
9759 9708 9758 0
9708 9759 9709 0
9760 9709 9759 0
9709 9760 9710 0
121 9710 9760 0
121 122 9710 0
9711 9165 9166 0
9761 9711 9166 0
9711 9761 9712 0
9762 9712 9761 0
9712 9762 9713 0
9763 9713 9762 0
9713 9763 9714 0
9764 9714 9763 0
9714 9764 9715 0
9765 9715 9764 0
9715 9765 9716 0
9766 9716 9765 0
9716 9766 9717 0
9767 9717 9766 0
9717 9767 9718 0
9768 9718 9767 0
9718 9768 9719 0
9769 9719 9768 0
9719 9769 9720 0
9770 9720 9769 0
9720 9770 9721 0
9771 9721 9770 0
9721 9771 9722 0
9772 9722 9771 0
9722 9772 9723 0
9773 9723 9772 0
9723 9773 9724 0
9774 9724 9773 0
9724 9774 9725 0
9775 9725 9774 0
9725 9775 9726 0
9776 9726 9775 0
9726 9776 9727 0
9777 9727 9776 0
9727 9777 9728 0
9778 9728 9777 0
9728 9778 9729 0
9779 9729 9778 0
9729 9779 9730 0
9780 9730 9779 0
9730 9780 9731 0
9781 9731 9780 0
9731 9781 9732 0
9782 9732 9781 0
9732 9782 9733 0
9783 9733 9782 0
9733 9783 9734 0
9784 9734 9783 0
9734 9784 9735 0
9785 9735 9784 0
9735 9785 9736 0
9786 9736 9785 0
9736 9786 9737 0
9787 9737 9786 0
9737 9787 9738 0
9788 9738 9787 0
9738 9788 9739 0
9789 9739 9788 0
9739 9789 9740 0
9790 9740 9789 0
9740 9790 9741 0
9791 9741 9790 0
9741 9791 9742 0
9792 9742 9791 0
9742 9792 9743 0
9793 9743 9792 0
9743 9793 9744 0
9794 9744 9793 0
9744 9794 9745 0
9795 9745 9794 0
9745 9795 9746 0
9796 9746 9795 0
9746 9796 9747 0
9797 9747 9796 0
9747 9797 9748 0
9798 9748 9797 0
9748 9798 9749 0
9799 9749 9798 0
9749 9799 9750 0
9800 9750 9799 0
9750 9800 9751 0
9801 9751 9800 0
9751 9801 9752 0
9802 9752 9801 0
9752 9802 9753 0
9803 9753 9802 0
9753 9803 9754 0
9804 9754 9803 0
9754 9804 9755 0
9805 9755 9804 0
9755 9805 9756 0
9806 9756 9805 0
9756 9806 9757 0
9807 9757 9806 0
9757 9807 9758 0
9808 9758 9807 0
9758 9808 9759 0
9809 9759 9808 0
9759 9809 9760 0
120 9760 9809 0
120 121 9760 0
9761 9166 9167 0
9810 9761 9167 0
9761 9810 9762 0
9811 9762 9810 0
9762 9811 9763 0
9812 9763 9811 0
9763 9812 9764 0
9813 9764 9812 0
9764 9813 9765 0
9814 9765 9813 0
9765 9814 9766 0
9815 9766 9814 0
9766 9815 9767 0
9816 9767 9815 0
9767 9816 9768 0
9817 9768 9816 0
9768 9817 9769 0
9818 9769 9817 0
9769 9818 9770 0
9819 9770 9818 0
9770 9819 9771 0
9820 9771 9819 0
9771 9820 9772 0
9821 9772 9820 0
9772 9821 9773 0
9822 9773 9821 0
9773 9822 9774 0
9823 9774 9822 0
9774 9823 9775 0
9824 9775 9823 0
9775 9824 9776 0
9825 9776 9824 0
9776 9825 9777 0
9826 9777 9825 0
9777 9826 9778 0
9827 9778 9826 0
9778 9827 9779 0
9828 9779 9827 0
9779 9828 9780 0
9829 9780 9828 0
9780 9829 9781 0
9830 9781 9829 0
9781 9830 9782 0
9831 9782 9830 0
9782 9831 9783 0
9832 9783 9831 0
9783 9832 9784 0
9833 9784 9832 0
9784 9833 9785 0
9834 9785 9833 0
9785 9834 9786 0
9835 9786 9834 0
9786 9835 9787 0
9836 9787 9835 0
9787 9836 9788 0
9837 9788 9836 0
9788 9837 9789 0
9838 9789 9837 0
9789 9838 9790 0
9839 9790 9838 0
9790 9839 9791 0
9840 9791 9839 0
9791 9840 9792 0
9841 9792 9840 0
9792 9841 9793 0
9842 9793 9841 0
9793 9842 9794 0
9843 9794 9842 0
9794 9843 9795 0
9844 9795 9843 0
9795 9844 9796 0
9845 9796 9844 0
9796 9845 9797 0
9846 9797 9845 0
9797 9846 9798 0
9847 9798 9846 0
9798 9847 9799 0
9848 9799 9847 0
9799 9848 9800 0
9849 9800 9848 0
9800 9849 9801 0
9850 9801 9849 0
9801 9850 9802 0
9851 9802 9850 0
9802 9851 9803 0
9852 9803 9851 0
9803 9852 9804 0
9853 9804 9852 0
9804 9853 9805 0
9854 9805 9853 0
9805 9854 9806 0
9855 9806 9854 0
9806 9855 9807 0
9856 9807 9855 0
9807 9856 9808 0
9857 9808 9856 0
9808 9857 9809 0
119 9809 9857 0
119 120 9809 0
9810 9167 9168 0
9858 9810 9168 0
9810 9858 9811 0
9859 9811 9858 0
9811 9859 9812 0
9860 9812 9859 0
9812 9860 9813 0
9861 9813 9860 0
9813 9861 9814 0
9862 9814 9861 0
9814 9862 9815 0
9863 9815 9862 0
9815 9863 9816 0
9864 9816 9863 0
9816 9864 9817 0
9865 9817 9864 0
9817 9865 9818 0
9866 9818 9865 0
9818 9866 9819 0
9867 9819 9866 0
9819 9867 9820 0
9868 9820 9867 0
9820 9868 9821 0
9869 9821 9868 0
9821 9869 9822 0
9870 9822 9869 0
9822 9870 9823 0
9871 9823 9870 0
9823 9871 9824 0
9872 9824 9871 0
9824 9872 9825 0
9873 9825 9872 0
9825 9873 9826 0
9874 9826 9873 0
9826 9874 9827 0
9875 9827 9874 0
9827 9875 9828 0
9876 9828 9875 0
9828 9876 9829 0
9877 9829 9876 0
9829 9877 9830 0
9878 9830 9877 0
9830 9878 9831 0
9879 9831 9878 0
9831 9879 9832 0
9880 9832 9879 0
9832 9880 9833 0
9881 9833 9880 0
9833 9881 9834 0
9882 9834 9881 0
9834 9882 9835 0
9883 9835 9882 0
9835 9883 9836 0
9884 9836 9883 0
9836 9884 9837 0
9885 9837 9884 0
9837 9885 9838 0
9886 9838 9885 0
9838 9886 9839 0
9887 9839 9886 0
9839 9887 9840 0
9888 9840 9887 0
9840 9888 9841 0
9889 9841 9888 0
9841 9889 9842 0
9890 9842 9889 0
9842 9890 9843 0
9891 9843 9890 0
9843 9891 9844 0
9892 9844 9891 0
9844 9892 9845 0
9893 9845 9892 0
9845 9893 9846 0
9894 9846 9893 0
9846 9894 9847 0
9895 9847 9894 0
9847 9895 9848 0
9896 9848 9895 0
9848 9896 9849 0
9897 9849 9896 0
9849 9897 9850 0
9898 9850 9897 0
9850 9898 9851 0
9899 9851 9898 0
9851 9899 9852 0
9900 9852 9899 0
9852 9900 9853 0
9901 9853 9900 0
9853 9901 9854 0
9902 9854 9901 0
9854 9902 9855 0
9903 9855 9902 0
9855 9903 9856 0
9904 9856 9903 0
9856 9904 9857 0
118 9857 9904 0
118 119 9857 0
9858 9168 9169 0
9905 9858 9169 0
9858 9905 9859 0
9906 9859 9905 0
9859 9906 9860 0
9907 9860 9906 0
9860 9907 9861 0
9908 9861 9907 0
9861 9908 9862 0
9909 9862 9908 0
9862 9909 9863 0
9910 9863 9909 0
9863 9910 9864 0
9911 9864 9910 0
9864 9911 9865 0
9912 9865 9911 0
9865 9912 9866 0
9913 9866 9912 0
9866 9913 9867 0
9914 9867 9913 0
9867 9914 9868 0
9915 9868 9914 0
9868 9915 9869 0
9916 9869 9915 0
9869 9916 9870 0
9917 9870 9916 0
9870 9917 9871 0
9918 9871 9917 0
9871 9918 9872 0
9919 9872 9918 0
9872 9919 9873 0
9920 9873 9919 0
9873 9920 9874 0
9921 9874 9920 0
9874 9921 9875 0
9922 9875 9921 0
9875 9922 9876 0
9923 9876 9922 0
9876 9923 9877 0
9924 9877 9923 0
9877 9924 9878 0
9925 9878 9924 0
9878 9925 9879 0
9926 9879 9925 0
9879 9926 9880 0
9927 9880 9926 0
9880 9927 9881 0
9928 9881 9927 0
9881 9928 9882 0
9929 9882 9928 0
9882 9929 9883 0
9930 9883 9929 0
9883 9930 9884 0
9931 9884 9930 0
9884 9931 9885 0
9932 9885 9931 0
9885 9932 9886 0
9933 9886 9932 0
9886 9933 9887 0
9934 9887 9933 0
9887 9934 9888 0
9935 9888 9934 0
9888 9935 9889 0
9936 9889 9935 0
9889 9936 9890 0
9937 9890 9936 0
9890 9937 9891 0
9938 9891 9937 0
9891 9938 9892 0
9939 9892 9938 0
9892 9939 9893 0
9940 9893 9939 0
9893 9940 9894 0
9941 9894 9940 0
9894 9941 9895 0
9942 9895 9941 0
9895 9942 9896 0
9943 9896 9942 0
9896 9943 9897 0
9944 9897 9943 0
9897 9944 9898 0
9945 9898 9944 0
9898 9945 9899 0
9946 9899 9945 0
9899 9946 9900 0
9947 9900 9946 0
9900 9947 9901 0
9948 9901 9947 0
9901 9948 9902 0
9949 9902 9948 0
9902 9949 9903 0
9950 9903 9949 0
9903 9950 9904 0
117 9904 9950 0
117 118 9904 0
9905 9169 9170 0
9951 9905 9170 0
9905 9951 9906 0
9952 9906 9951 0
9906 9952 9907 0
9953 9907 9952 0
9907 9953 9908 0
9954 9908 9953 0
9908 9954 9909 0
9955 9909 9954 0
9909 9955 9910 0
9956 9910 9955 0
9910 9956 9911 0
9957 9911 9956 0
9911 9957 9912 0
9958 9912 9957 0
9912 9958 9913 0
9959 9913 9958 0
9913 9959 9914 0
9960 9914 9959 0
9914 9960 9915 0
9961 9915 9960 0
9915 9961 9916 0
9962 9916 9961 0
9916 9962 9917 0
9963 9917 9962 0
9917 9963 9918 0
9964 9918 9963 0
9918 9964 9919 0
9965 9919 9964 0
9919 9965 9920 0
9966 9920 9965 0
9920 9966 9921 0
9967 9921 9966 0
9921 9967 9922 0
9968 9922 9967 0
9922 9968 9923 0
9969 9923 9968 0
9923 9969 9924 0
9970 9924 9969 0
9924 9970 9925 0
9971 9925 9970 0
9925 9971 9926 0
9972 9926 9971 0
9926 9972 9927 0
9973 9927 9972 0
9927 9973 9928 0
9974 9928 9973 0
9928 9974 9929 0
9975 9929 9974 0
9929 9975 9930 0
9976 9930 9975 0
9930 9976 9931 0
9977 9931 9976 0
9931 9977 9932 0
9978 9932 9977 0
9932 9978 9933 0
9979 9933 9978 0
9933 9979 9934 0
9980 9934 9979 0
9934 9980 9935 0
9981 9935 9980 0
9935 9981 9936 0
9982 9936 9981 0
9936 9982 9937 0
9983 9937 9982 0
9937 9983 9938 0
9984 9938 9983 0
9938 9984 9939 0
9985 9939 9984 0
9939 9985 9940 0
9986 9940 9985 0
9940 9986 9941 0
9987 9941 9986 0
9941 9987 9942 0
9988 9942 9987 0
9942 9988 9943 0
9989 9943 9988 0
9943 9989 9944 0
9990 9944 9989 0
9944 9990 9945 0
9991 9945 9990 0
9945 9991 9946 0
9992 9946 9991 0
9946 9992 9947 0
9993 9947 9992 0
9947 9993 9948 0
9994 9948 9993 0
9948 9994 9949 0
9995 9949 9994 0
9949 9995 9950 0
116 9950 9995 0
116 117 9950 0
9951 9170 9171 0
9996 9951 9171 0
9951 9996 9952 0
9997 9952 9996 0
9952 9997 9953 0
9998 9953 9997 0
9953 9998 9954 0
9999 9954 9998 0
9954 9999 9955 0
10000 9955 9999 0
9955 10000 9956 0
10001 9956 10000 0
9956 10001 9957 0
10002 9957 10001 0
9957 10002 9958 0
10003 9958 10002 0
9958 10003 9959 0
10004 9959 10003 0
9959 10004 9960 0
10005 9960 10004 0
9960 10005 9961 0
10006 9961 10005 0
9961 10006 9962 0
10007 9962 10006 0
9962 10007 9963 0
10008 9963 10007 0
9963 10008 9964 0
10009 9964 10008 0
9964 10009 9965 0
10010 9965 10009 0
9965 10010 9966 0
10011 9966 10010 0
9966 10011 9967 0
10012 9967 10011 0
9967 10012 9968 0
10013 9968 10012 0
9968 10013 9969 0
10014 9969 10013 0
9969 10014 9970 0
10015 9970 10014 0
9970 10015 9971 0
10016 9971 10015 0
9971 10016 9972 0
10017 9972 10016 0
9972 10017 9973 0
10018 9973 10017 0
9973 10018 9974 0
10019 9974 10018 0
9974 10019 9975 0
10020 9975 10019 0
9975 10020 9976 0
10021 9976 10020 0
9976 10021 9977 0
10022 9977 10021 0
9977 10022 9978 0
10023 9978 10022 0
9978 10023 9979 0
10024 9979 10023 0
9979 10024 9980 0
10025 9980 10024 0
9980 10025 9981 0
10026 9981 10025 0
9981 10026 9982 0
10027 9982 10026 0
9982 10027 9983 0
10028 9983 10027 0
9983 10028 9984 0
10029 9984 10028 0
9984 10029 9985 0
10030 9985 10029 0
9985 10030 9986 0
10031 9986 10030 0
9986 10031 9987 0
10032 9987 10031 0
9987 10032 9988 0
10033 9988 10032 0
9988 10033 9989 0
10034 9989 10033 0
9989 10034 9990 0
10035 9990 10034 0
9990 10035 9991 0
10036 9991 10035 0
9991 10036 9992 0
10037 9992 10036 0
9992 10037 9993 0
10038 9993 10037 0
9993 10038 9994 0
10039 9994 10038 0
9994 10039 9995 0
115 9995 10039 0
115 116 9995 0
9996 9171 9172 0
10040 9996 9172 0
9996 10040 9997 0
10041 9997 10040 0
9997 10041 9998 0
10042 9998 10041 0
9998 10042 9999 0
10043 9999 10042 0
9999 10043 10000 0
10044 10000 10043 0
10000 10044 10001 0
10045 10001 10044 0
10001 10045 10002 0
10046 10002 10045 0
10002 10046 10003 0
10047 10003 10046 0
10003 10047 10004 0
10048 10004 10047 0
10004 10048 10005 0
10049 10005 10048 0
10005 10049 10006 0
10050 10006 10049 0
10006 10050 10007 0
10051 10007 10050 0
10007 10051 10008 0
10052 10008 10051 0
10008 10052 10009 0
10053 10009 10052 0
10009 10053 10010 0
10054 10010 10053 0
10010 10054 10011 0
10055 10011 10054 0
10011 10055 10012 0
10056 10012 10055 0
10012 10056 10013 0
10057 10013 10056 0
10013 10057 10014 0
10058 10014 10057 0
10014 10058 10015 0
10059 10015 10058 0
10015 10059 10016 0
10060 10016 10059 0
10016 10060 10017 0
10061 10017 10060 0
10017 10061 10018 0
10062 10018 10061 0
10018 10062 10019 0
10063 10019 10062 0
10019 10063 10020 0
10064 10020 10063 0
10020 10064 10021 0
10065 10021 10064 0
10021 10065 10022 0
10066 10022 10065 0
10022 10066 10023 0
10067 10023 10066 0
10023 10067 10024 0
10068 10024 10067 0
10024 10068 10025 0
10069 10025 10068 0
10025 10069 10026 0
10070 10026 10069 0
10026 10070 10027 0
10071 10027 10070 0
10027 10071 10028 0
10072 10028 10071 0
10028 10072 10029 0
10073 10029 10072 0
10029 10073 10030 0
10074 10030 10073 0
10030 10074 10031 0
10075 10031 10074 0
10031 10075 10032 0
10076 10032 10075 0
10032 10076 10033 0
10077 10033 10076 0
10033 10077 10034 0
10078 10034 10077 0
10034 10078 10035 0
10079 10035 10078 0
10035 10079 10036 0
10080 10036 10079 0
10036 10080 10037 0
10081 10037 10080 0
10037 10081 10038 0
10082 10038 10081 0
10038 10082 10039 0
114 10039 10082 0
114 115 10039 0
10040 9172 9173 0
10083 10040 9173 0
10040 10083 10041 0
10084 10041 10083 0
10041 10084 10042 0
10085 10042 10084 0
10042 10085 10043 0
10086 10043 10085 0
10043 10086 10044 0
10087 10044 10086 0
10044 10087 10045 0
10088 10045 10087 0
10045 10088 10046 0
10089 10046 10088 0
10046 10089 10047 0
10090 10047 10089 0
10047 10090 10048 0
10091 10048 10090 0
10048 10091 10049 0
10092 10049 10091 0
10049 10092 10050 0
10093 10050 10092 0
10050 10093 10051 0
10094 10051 10093 0
10051 10094 10052 0
10095 10052 10094 0
10052 10095 10053 0
10096 10053 10095 0
10053 10096 10054 0
10097 10054 10096 0
10054 10097 10055 0
10098 10055 10097 0
10055 10098 10056 0
10099 10056 10098 0
10056 10099 10057 0
10100 10057 10099 0
10057 10100 10058 0
10101 10058 10100 0
10058 10101 10059 0
10102 10059 10101 0
10059 10102 10060 0
10103 10060 10102 0
10060 10103 10061 0
10104 10061 10103 0
10061 10104 10062 0
10105 10062 10104 0
10062 10105 10063 0
10106 10063 10105 0
10063 10106 10064 0
10107 10064 10106 0
10064 10107 10065 0
10108 10065 10107 0
10065 10108 10066 0
10109 10066 10108 0
10066 10109 10067 0
10110 10067 10109 0
10067 10110 10068 0
10111 10068 10110 0
10068 10111 10069 0
10112 10069 10111 0
10069 10112 10070 0
10113 10070 10112 0
10070 10113 10071 0
10114 10071 10113 0
10071 10114 10072 0
10115 10072 10114 0
10072 10115 10073 0
10116 10073 10115 0
10073 10116 10074 0
10117 10074 10116 0
10074 10117 10075 0
10118 10075 10117 0
10075 10118 10076 0
10119 10076 10118 0
10076 10119 10077 0
10120 10077 10119 0
10077 10120 10078 0
10121 10078 10120 0
10078 10121 10079 0
10122 10079 10121 0
10079 10122 10080 0
10123 10080 10122 0
10080 10123 10081 0
10124 10081 10123 0
10081 10124 10082 0
113 10082 10124 0
113 114 10082 0
10083 9173 9174 0
10125 10083 9174 0
10083 10125 10084 0
10126 10084 10125 0
10084 10126 10085 0
10127 10085 10126 0
10085 10127 10086 0
10128 10086 10127 0
10086 10128 10087 0
10129 10087 10128 0
10087 10129 10088 0
10130 10088 10129 0
10088 10130 10089 0
10131 10089 10130 0
10089 10131 10090 0
10132 10090 10131 0
10090 10132 10091 0
10133 10091 10132 0
10091 10133 10092 0
10134 10092 10133 0
10092 10134 10093 0
10135 10093 10134 0
10093 10135 10094 0
10136 10094 10135 0
10094 10136 10095 0
10137 10095 10136 0
10095 10137 10096 0
10138 10096 10137 0
10096 10138 10097 0
10139 10097 10138 0
10097 10139 10098 0
10140 10098 10139 0
10098 10140 10099 0
10141 10099 10140 0
10099 10141 10100 0
10142 10100 10141 0
10100 10142 10101 0
10143 10101 10142 0
10101 10143 10102 0
10144 10102 10143 0
10102 10144 10103 0
10145 10103 10144 0
10103 10145 10104 0
10146 10104 10145 0
10104 10146 10105 0
10147 10105 10146 0
10105 10147 10106 0
10148 10106 10147 0
10106 10148 10107 0
10149 10107 10148 0
10107 10149 10108 0
10150 10108 10149 0
10108 10150 10109 0
10151 10109 10150 0
10109 10151 10110 0
10152 10110 10151 0
10110 10152 10111 0
10153 10111 10152 0
10111 10153 10112 0
10154 10112 10153 0
10112 10154 10113 0
10155 10113 10154 0
10113 10155 10114 0
10156 10114 10155 0
10114 10156 10115 0
10157 10115 10156 0
10115 10157 10116 0
10158 10116 10157 0
10116 10158 10117 0
10159 10117 10158 0
10117 10159 10118 0
10160 10118 10159 0
10118 10160 10119 0
10161 10119 10160 0
10119 10161 10120 0
10162 10120 10161 0
10120 10162 10121 0
10163 10121 10162 0
10121 10163 10122 0
10164 10122 10163 0
10122 10164 10123 0
10165 10123 10164 0
10123 10165 10124 0
112 10124 10165 0
112 113 10124 0
10125 9174 9175 0
10166 10125 9175 0
10125 10166 10126 0
10167 10126 10166 0
10126 10167 10127 0
10168 10127 10167 0
10127 10168 10128 0
10169 10128 10168 0
10128 10169 10129 0
10170 10129 10169 0
10129 10170 10130 0
10171 10130 10170 0
10130 10171 10131 0
10172 10131 10171 0
10131 10172 10132 0
10173 10132 10172 0
10132 10173 10133 0
10174 10133 10173 0
10133 10174 10134 0
10175 10134 10174 0
10134 10175 10135 0
10176 10135 10175 0
10135 10176 10136 0
10177 10136 10176 0
10136 10177 10137 0
10178 10137 10177 0
10137 10178 10138 0
10179 10138 10178 0
10138 10179 10139 0
10180 10139 10179 0
10139 10180 10140 0
10181 10140 10180 0
10140 10181 10141 0
10182 10141 10181 0
10141 10182 10142 0
10183 10142 10182 0
10142 10183 10143 0
10184 10143 10183 0
10143 10184 10144 0
10185 10144 10184 0
10144 10185 10145 0
10186 10145 10185 0
10145 10186 10146 0
10187 10146 10186 0
10146 10187 10147 0
10188 10147 10187 0
10147 10188 10148 0
10189 10148 10188 0
10148 10189 10149 0
10190 10149 10189 0
10149 10190 10150 0
10191 10150 10190 0
10150 10191 10151 0
10192 10151 10191 0
10151 10192 10152 0
10193 10152 10192 0
10152 10193 10153 0
10194 10153 10193 0
10153 10194 10154 0
10195 10154 10194 0
10154 10195 10155 0
10196 10155 10195 0
10155 10196 10156 0
10197 10156 10196 0
10156 10197 10157 0
10198 10157 10197 0
10157 10198 10158 0
10199 10158 10198 0
10158 10199 10159 0
10200 10159 10199 0
10159 10200 10160 0
10201 10160 10200 0
10160 10201 10161 0
10202 10161 10201 0
10161 10202 10162 0
10203 10162 10202 0
10162 10203 10163 0
10204 10163 10203 0
10163 10204 10164 0
10205 10164 10204 0
10164 10205 10165 0
111 10165 10205 0
111 112 10165 0
10166 9175 9176 0
10206 10166 9176 0
10166 10206 10167 0
10207 10167 10206 0
10167 10207 10168 0
10208 10168 10207 0
10168 10208 10169 0
10209 10169 10208 0
10169 10209 10170 0
10210 10170 10209 0
10170 10210 10171 0
10211 10171 10210 0
10171 10211 10172 0
10212 10172 10211 0
10172 10212 10173 0
10213 10173 10212 0
10173 10213 10174 0
10214 10174 10213 0
10174 10214 10175 0
10215 10175 10214 0
10175 10215 10176 0
10216 10176 10215 0
10176 10216 10177 0
10217 10177 10216 0
10177 10217 10178 0
10218 10178 10217 0
10178 10218 10179 0
10219 10179 10218 0
10179 10219 10180 0
10220 10180 10219 0
10180 10220 10181 0
10221 10181 10220 0
10181 10221 10182 0
10222 10182 10221 0
10182 10222 10183 0
10223 10183 10222 0
10183 10223 10184 0
10224 10184 10223 0
10184 10224 10185 0
10225 10185 10224 0
10185 10225 10186 0
10226 10186 10225 0
10186 10226 10187 0
10227 10187 10226 0
10187 10227 10188 0
10228 10188 10227 0
10188 10228 10189 0
10229 10189 10228 0
10189 10229 10190 0
10230 10190 10229 0
10190 10230 10191 0
10231 10191 10230 0
10191 10231 10192 0
10232 10192 10231 0
10192 10232 10193 0
10233 10193 10232 0
10193 10233 10194 0
10234 10194 10233 0
10194 10234 10195 0
10235 10195 10234 0
10195 10235 10196 0
10236 10196 10235 0
10196 10236 10197 0
10237 10197 10236 0
10197 10237 10198 0
10238 10198 10237 0
10198 10238 10199 0
10239 10199 10238 0
10199 10239 10200 0
10240 10200 10239 0
10200 10240 10201 0
10241 10201 10240 0
10201 10241 10202 0
10242 10202 10241 0
10202 10242 10203 0
10243 10203 10242 0
10203 10243 10204 0
10244 10204 10243 0
10204 10244 10205 0
110 10205 10244 0
110 111 10205 0
10206 9176 9177 0
10245 10206 9177 0
10206 10245 10207 0
10246 10207 10245 0
10207 10246 10208 0
10247 10208 10246 0
10208 10247 10209 0
10248 10209 10247 0
10209 10248 10210 0
10249 10210 10248 0
10210 10249 10211 0
10250 10211 10249 0
10211 10250 10212 0
10251 10212 10250 0
10212 10251 10213 0
10252 10213 10251 0
10213 10252 10214 0
10253 10214 10252 0
10214 10253 10215 0
10254 10215 10253 0
10215 10254 10216 0
10255 10216 10254 0
10216 10255 10217 0
10256 10217 10255 0
10217 10256 10218 0
10257 10218 10256 0
10218 10257 10219 0
10258 10219 10257 0
10219 10258 10220 0
10259 10220 10258 0
10220 10259 10221 0
10260 10221 10259 0
10221 10260 10222 0
10261 10222 10260 0
10222 10261 10223 0
10262 10223 10261 0
10223 10262 10224 0
10263 10224 10262 0
10224 10263 10225 0
10264 10225 10263 0
10225 10264 10226 0
10265 10226 10264 0
10226 10265 10227 0
10266 10227 10265 0
10227 10266 10228 0
10267 10228 10266 0
10228 10267 10229 0
10268 10229 10267 0
10229 10268 10230 0
10269 10230 10268 0
10230 10269 10231 0
10270 10231 10269 0
10231 10270 10232 0
10271 10232 10270 0
10232 10271 10233 0
10272 10233 10271 0
10233 10272 10234 0
10273 10234 10272 0
10234 10273 10235 0
10274 10235 10273 0
10235 10274 10236 0
10275 10236 10274 0
10236 10275 10237 0
10276 10237 10275 0
10237 10276 10238 0
10277 10238 10276 0
10238 10277 10239 0
10278 10239 10277 0
10239 10278 10240 0
10279 10240 10278 0
10240 10279 10241 0
10280 10241 10279 0
10241 10280 10242 0
10281 10242 10280 0
10242 10281 10243 0
10282 10243 10281 0
10243 10282 10244 0
109 10244 10282 0
109 110 10244 0
10245 9177 9178 0
10283 10245 9178 0
10245 10283 10246 0
10284 10246 10283 0
10246 10284 10247 0
10285 10247 10284 0
10247 10285 10248 0
10286 10248 10285 0
10248 10286 10249 0
10287 10249 10286 0
10249 10287 10250 0
10288 10250 10287 0
10250 10288 10251 0
10289 10251 10288 0
10251 10289 10252 0
10290 10252 10289 0
10252 10290 10253 0
10291 10253 10290 0
10253 10291 10254 0
10292 10254 10291 0
10254 10292 10255 0
10293 10255 10292 0
10255 10293 10256 0
10294 10256 10293 0
10256 10294 10257 0
10295 10257 10294 0
10257 10295 10258 0
10296 10258 10295 0
10258 10296 10259 0
10297 10259 10296 0
10259 10297 10260 0
10298 10260 10297 0
10260 10298 10261 0
10299 10261 10298 0
10261 10299 10262 0
10300 10262 10299 0
10262 10300 10263 0
10301 10263 10300 0
10263 10301 10264 0
10302 10264 10301 0
10264 10302 10265 0
10303 10265 10302 0
10265 10303 10266 0
10304 10266 10303 0
10266 10304 10267 0
10305 10267 10304 0
10267 10305 10268 0
10306 10268 10305 0
10268 10306 10269 0
10307 10269 10306 0
10269 10307 10270 0
10308 10270 10307 0
10270 10308 10271 0
10309 10271 10308 0
10271 10309 10272 0
10310 10272 10309 0
10272 10310 10273 0
10311 10273 10310 0
10273 10311 10274 0
10312 10274 10311 0
10274 10312 10275 0
10313 10275 10312 0
10275 10313 10276 0
10314 10276 10313 0
10276 10314 10277 0
10315 10277 10314 0
10277 10315 10278 0
10316 10278 10315 0
10278 10316 10279 0
10317 10279 10316 0
10279 10317 10280 0
10318 10280 10317 0
10280 10318 10281 0
10319 10281 10318 0
10281 10319 10282 0
108 10282 10319 0
108 109 10282 0
10283 9178 9179 0
10320 10283 9179 0
10283 10320 10284 0
10321 10284 10320 0
10284 10321 10285 0
10322 10285 10321 0
10285 10322 10286 0
10323 10286 10322 0
10286 10323 10287 0
10324 10287 10323 0
10287 10324 10288 0
10325 10288 10324 0
10288 10325 10289 0
10326 10289 10325 0
10289 10326 10290 0
10327 10290 10326 0
10290 10327 10291 0
10328 10291 10327 0
10291 10328 10292 0
10329 10292 10328 0
10292 10329 10293 0
10330 10293 10329 0
10293 10330 10294 0
10331 10294 10330 0
10294 10331 10295 0
10332 10295 10331 0
10295 10332 10296 0
10333 10296 10332 0
10296 10333 10297 0
10334 10297 10333 0
10297 10334 10298 0
10335 10298 10334 0
10298 10335 10299 0
10336 10299 10335 0
10299 10336 10300 0
10337 10300 10336 0
10300 10337 10301 0
10338 10301 10337 0
10301 10338 10302 0
10339 10302 10338 0
10302 10339 10303 0
10340 10303 10339 0
10303 10340 10304 0
10341 10304 10340 0
10304 10341 10305 0
10342 10305 10341 0
10305 10342 10306 0
10343 10306 10342 0
10306 10343 10307 0
10344 10307 10343 0
10307 10344 10308 0
10345 10308 10344 0
10308 10345 10309 0
10346 10309 10345 0
10309 10346 10310 0
10347 10310 10346 0
10310 10347 10311 0
10348 10311 10347 0
10311 10348 10312 0
10349 10312 10348 0
10312 10349 10313 0
10350 10313 10349 0
10313 10350 10314 0
10351 10314 10350 0
10314 10351 10315 0
10352 10315 10351 0
10315 10352 10316 0
10353 10316 10352 0
10316 10353 10317 0
10354 10317 10353 0
10317 10354 10318 0
10355 10318 10354 0
10318 10355 10319 0
107 10319 10355 0
107 108 10319 0
10320 9179 9180 0
10356 10320 9180 0
10320 10356 10321 0
10357 10321 10356 0
10321 10357 10322 0
10358 10322 10357 0
10322 10358 10323 0
10359 10323 10358 0
10323 10359 10324 0
10360 10324 10359 0
10324 10360 10325 0
10361 10325 10360 0
10325 10361 10326 0
10362 10326 10361 0
10326 10362 10327 0
10363 10327 10362 0
10327 10363 10328 0
10364 10328 10363 0
10328 10364 10329 0
10365 10329 10364 0
10329 10365 10330 0
10366 10330 10365 0
10330 10366 10331 0
10367 10331 10366 0
10331 10367 10332 0
10368 10332 10367 0
10332 10368 10333 0
10369 10333 10368 0
10333 10369 10334 0
10370 10334 10369 0
10334 10370 10335 0
10371 10335 10370 0
10335 10371 10336 0
10372 10336 10371 0
10336 10372 10337 0
10373 10337 10372 0
10337 10373 10338 0
10374 10338 10373 0
10338 10374 10339 0
10375 10339 10374 0
10339 10375 10340 0
10376 10340 10375 0
10340 10376 10341 0
10377 10341 10376 0
10341 10377 10342 0
10378 10342 10377 0
10342 10378 10343 0
10379 10343 10378 0
10343 10379 10344 0
10380 10344 10379 0
10344 10380 10345 0
10381 10345 10380 0
10345 10381 10346 0
10382 10346 10381 0
10346 10382 10347 0
10383 10347 10382 0
10347 10383 10348 0
10384 10348 10383 0
10348 10384 10349 0
10385 10349 10384 0
10349 10385 10350 0
10386 10350 10385 0
10350 10386 10351 0
10387 10351 10386 0
10351 10387 10352 0
10388 10352 10387 0
10352 10388 10353 0
10389 10353 10388 0
10353 10389 10354 0
10390 10354 10389 0
10354 10390 10355 0
106 10355 10390 0
106 107 10355 0
10356 9180 9181 0
10391 10356 9181 0
10356 10391 10357 0
10392 10357 10391 0
10357 10392 10358 0
10393 10358 10392 0
10358 10393 10359 0
10394 10359 10393 0
10359 10394 10360 0
10395 10360 10394 0
10360 10395 10361 0
10396 10361 10395 0
10361 10396 10362 0
10397 10362 10396 0
10362 10397 10363 0
10398 10363 10397 0
10363 10398 10364 0
10399 10364 10398 0
10364 10399 10365 0
10400 10365 10399 0
10365 10400 10366 0
10401 10366 10400 0
10366 10401 10367 0
10402 10367 10401 0
10367 10402 10368 0
10403 10368 10402 0
10368 10403 10369 0
10404 10369 10403 0
10369 10404 10370 0
10405 10370 10404 0
10370 10405 10371 0
10406 10371 10405 0
10371 10406 10372 0
10407 10372 10406 0
10372 10407 10373 0
10408 10373 10407 0
10373 10408 10374 0
10409 10374 10408 0
10374 10409 10375 0
10410 10375 10409 0
10375 10410 10376 0
10411 10376 10410 0
10376 10411 10377 0
10412 10377 10411 0
10377 10412 10378 0
10413 10378 10412 0
10378 10413 10379 0
10414 10379 10413 0
10379 10414 10380 0
10415 10380 10414 0
10380 10415 10381 0
10416 10381 10415 0
10381 10416 10382 0
10417 10382 10416 0
10382 10417 10383 0
10418 10383 10417 0
10383 10418 10384 0
10419 10384 10418 0
10384 10419 10385 0
10420 10385 10419 0
10385 10420 10386 0
10421 10386 10420 0
10386 10421 10387 0
10422 10387 10421 0
10387 10422 10388 0
10423 10388 10422 0
10388 10423 10389 0
10424 10389 10423 0
10389 10424 10390 0
105 10390 10424 0
105 106 10390 0
10391 9181 9182 0
10425 10391 9182 0
10391 10425 10392 0
10426 10392 10425 0
10392 10426 10393 0
10427 10393 10426 0
10393 10427 10394 0
10428 10394 10427 0
10394 10428 10395 0
10429 10395 10428 0
10395 10429 10396 0
10430 10396 10429 0
10396 10430 10397 0
10431 10397 10430 0
10397 10431 10398 0
10432 10398 10431 0
10398 10432 10399 0
10433 10399 10432 0
10399 10433 10400 0
10434 10400 10433 0
10400 10434 10401 0
10435 10401 10434 0
10401 10435 10402 0
10436 10402 10435 0
10402 10436 10403 0
10437 10403 10436 0
10403 10437 10404 0
10438 10404 10437 0
10404 10438 10405 0
10439 10405 10438 0
10405 10439 10406 0
10440 10406 10439 0
10406 10440 10407 0
10441 10407 10440 0
10407 10441 10408 0
10442 10408 10441 0
10408 10442 10409 0
10443 10409 10442 0
10409 10443 10410 0
10444 10410 10443 0
10410 10444 10411 0
10445 10411 10444 0
10411 10445 10412 0
10446 10412 10445 0
10412 10446 10413 0
10447 10413 10446 0
10413 10447 10414 0
10448 10414 10447 0
10414 10448 10415 0
10449 10415 10448 0
10415 10449 10416 0
10450 10416 10449 0
10416 10450 10417 0
10451 10417 10450 0
10417 10451 10418 0
10452 10418 10451 0
10418 10452 10419 0
10453 10419 10452 0
10419 10453 10420 0
10454 10420 10453 0
10420 10454 10421 0
10455 10421 10454 0
10421 10455 10422 0
10456 10422 10455 0
10422 10456 10423 0
10457 10423 10456 0
10423 10457 10424 0
104 10424 10457 0
104 105 10424 0
10425 9182 9183 0
10458 10425 9183 0
10425 10458 10426 0
10459 10426 10458 0
10426 10459 10427 0
10460 10427 10459 0
10427 10460 10428 0
10461 10428 10460 0
10428 10461 10429 0
10462 10429 10461 0
10429 10462 10430 0
10463 10430 10462 0
10430 10463 10431 0
10464 10431 10463 0
10431 10464 10432 0
10465 10432 10464 0
10432 10465 10433 0
10466 10433 10465 0
10433 10466 10434 0
10467 10434 10466 0
10434 10467 10435 0
10468 10435 10467 0
10435 10468 10436 0
10469 10436 10468 0
10436 10469 10437 0
10470 10437 10469 0
10437 10470 10438 0
10471 10438 10470 0
10438 10471 10439 0
10472 10439 10471 0
10439 10472 10440 0
10473 10440 10472 0
10440 10473 10441 0
10474 10441 10473 0
10441 10474 10442 0
10475 10442 10474 0
10442 10475 10443 0
10476 10443 10475 0
10443 10476 10444 0
10477 10444 10476 0
10444 10477 10445 0
10478 10445 10477 0
10445 10478 10446 0
10479 10446 10478 0
10446 10479 10447 0
10480 10447 10479 0
10447 10480 10448 0
10481 10448 10480 0
10448 10481 10449 0
10482 10449 10481 0
10449 10482 10450 0
10483 10450 10482 0
10450 10483 10451 0
10484 10451 10483 0
10451 10484 10452 0
10485 10452 10484 0
10452 10485 10453 0
10486 10453 10485 0
10453 10486 10454 0
10487 10454 10486 0
10454 10487 10455 0
10488 10455 10487 0
10455 10488 10456 0
10489 10456 10488 0
10456 10489 10457 0
103 10457 10489 0
103 104 10457 0
10458 9183 9184 0
10490 10458 9184 0
10458 10490 10459 0
10491 10459 10490 0
10459 10491 10460 0
10492 10460 10491 0
10460 10492 10461 0
10493 10461 10492 0
10461 10493 10462 0
10494 10462 10493 0
10462 10494 10463 0
10495 10463 10494 0
10463 10495 10464 0
10496 10464 10495 0
10464 10496 10465 0
10497 10465 10496 0
10465 10497 10466 0
10498 10466 10497 0
10466 10498 10467 0
10499 10467 10498 0
10467 10499 10468 0
10500 10468 10499 0
10468 10500 10469 0
10501 10469 10500 0
10469 10501 10470 0
10502 10470 10501 0
10470 10502 10471 0
10503 10471 10502 0
10471 10503 10472 0
10504 10472 10503 0
10472 10504 10473 0
10505 10473 10504 0
10473 10505 10474 0
10506 10474 10505 0
10474 10506 10475 0
10507 10475 10506 0
10475 10507 10476 0
10508 10476 10507 0
10476 10508 10477 0
10509 10477 10508 0
10477 10509 10478 0
10510 10478 10509 0
10478 10510 10479 0
10511 10479 10510 0
10479 10511 10480 0
10512 10480 10511 0
10480 10512 10481 0
10513 10481 10512 0
10481 10513 10482 0
10514 10482 10513 0
10482 10514 10483 0
10515 10483 10514 0
10483 10515 10484 0
10516 10484 10515 0
10484 10516 10485 0
10517 10485 10516 0
10485 10517 10486 0
10518 10486 10517 0
10486 10518 10487 0
10519 10487 10518 0
10487 10519 10488 0
10520 10488 10519 0
