#!ascii version in FreeSurfer format (SUMA)
36002 72000
-9.129258  26.357586  5.496117  0
-9.107596  26.531796  5.109961  0
-8.831404  26.519499  4.757604  0
-8.412543  26.408117  4.442186  0
-7.965339  26.263849  4.132853  0
-7.538918  26.108257  3.806612  0
-7.148244  25.948074  3.452476  0
-6.802057  25.787708  3.063078  0
-6.527794  25.636814  2.625547  0
-7.058798  23.691593  7.899668  0
-7.263463  24.116228  7.430122  0
-7.494631  24.582371  7.023111  0
-7.753545  25.082150  6.664473  0
-8.034370  25.593248  6.327796  0
-8.328394  26.086819  5.990624  0
-8.595628  26.528667  5.629722  0
-8.757010  26.859995  5.240419  0
-8.745841  27.045391  4.846680  0
-8.473501  27.036564  4.492315  0
-8.074351  26.935974  4.169578  0
-7.640704  26.797285  3.854373  0
-7.212800  26.638559  3.527131  0
-6.813624  26.471842  3.175683  0
-6.464956  26.301651  2.784472  0
-6.795447  24.223961  7.708451  0
-6.993824  24.672791  7.271113  0
-7.216619  25.150238  6.878452  0
-7.459642  25.643948  6.507467  0
-7.723383  26.134123  6.145823  0
-7.993074  26.602665  5.776186  0
-8.236362  27.027142  5.388908  0
-8.380989  27.349815  4.984886  0
-8.357935  27.533195  4.588627  0
-8.096581  27.533859  4.229012  0
-7.726775  27.452217  3.897333  0
-7.297632  27.315958  3.579441  0
-6.861924  27.153095  3.255449  0
-6.454223  26.975338  2.904557  0
-6.530451  24.760145  7.549971  0
-6.723967  25.221312  7.131208  0
-6.932463  25.697044  6.732489  0
-7.159477  26.174696  6.344215  0
-7.399626  26.642244  5.952685  0
-7.640112  27.085732  5.553233  0
-7.853141  27.491711  5.144625  0
-7.978233  27.808590  4.731569  0
-7.941906  27.990875  4.331122  0
-7.729269  28.034981  3.959310  0
-7.362616  27.960499  3.624721  0
-6.927460  27.822817  3.309522  0
-6.483094  27.650927  2.988128  0
-6.263370  25.289753  7.408473  0
-6.445727  25.751791  6.992808  0
-6.639291  26.215752  6.583639  0
-6.842457  26.673752  6.168408  0
-7.055130  27.116047  5.746685  0
-7.266711  27.538063  5.323517  0
-7.449860  27.926868  4.898551  0
-7.562749  28.248899  4.476423  0
-7.548272  28.462601  4.066237  0
-7.340977  28.525745  3.690226  0
-6.975927  28.461443  3.355090  0
-6.533755  28.318487  3.043594  0
-5.985461  25.803471  7.271129  0
-6.151893  26.257521  6.851378  0
-6.323894  26.705683  6.422247  0
-6.502708  27.139612  5.979070  0
-6.689125  27.556566  5.531595  0
-6.874891  27.962515  5.089535  0
-7.036588  28.346949  4.652463  0
-7.138924  28.684687  4.222033  0
-7.134835  28.933361  3.803289  0
-6.939321  29.021049  3.421894  0
-6.567320  28.953178  3.088523  0
-5.685553  26.292826  7.130721  0
-5.833851  26.736523  6.700598  0
-5.985039  27.165401  6.249667  0
-6.142712  27.573864  5.781148  0
-6.306481  27.972298  5.315219  0
-6.467030  28.370310  4.856191  0
-6.608888  28.763643  4.407854  0
-6.710870  29.131586  3.968316  0
-6.718202  29.416065  3.540522  0
-6.508263  29.498714  3.157165  0
-5.358338  26.756937  6.981949  0
-5.491680  27.188906  6.538908  0
-5.626959  27.596645  6.068238  0
-5.767006  27.986465  5.580510  0
-5.907301  28.376123  5.096329  0
-6.043386  28.775419  4.625344  0
-6.167228  29.184191  4.167889  0
-6.261570  29.576517  3.718759  0
-6.258909  29.866703  3.282243  0
-5.009750  27.197195  6.824543  0
-5.131491  27.613503  6.366444  0
-5.255991  28.009180  5.881120  0
-5.379076  28.390867  5.380433  0
-5.495495  28.778120  4.882382  0
-5.604864  29.186037  4.402844  0
-5.711503  29.609364  3.935598  0
-5.798072  30.009670  3.474187  0
-4.648400  27.607319  6.650331  0
-4.763471  28.020210  6.186123  0
-4.876667  28.411770  5.692604  0
-4.980701  28.794399  5.183990  0
-5.070655  29.187439  4.680059  0
-5.158154  29.602535  4.191694  0
-5.254014  30.027519  3.715104  0
-4.290810  27.991165  6.458593  0
-4.396813  28.408543  5.994745  0
-4.494907  28.807081  5.503168  0
-4.575562  29.198338  4.995280  0
-4.643608  29.600861  4.487927  0
-4.719184  30.020159  3.992585  0
-3.957639  28.335545  6.236711  0
-4.044308  28.769861  5.785254  0
-4.119151  29.181931  5.302989  0
-4.177167  29.588629  4.800407  0
-4.230060  30.005653  4.297203  0
-3.682585  28.616016  5.965242  0
-3.730940  29.078468  5.537911  0
-3.769806  29.517380  5.075003  0
-3.809524  29.940613  4.581586  0
-3.484282  28.830015  5.642756  0
-3.485694  29.316368  5.235848  0
-3.497865  29.768480  4.781813  0
-3.381307  28.975458  5.265695  0
-3.344199  29.465963  4.862772  0
-3.345468  29.079845  4.860086  0
-12.433249  1.888071  10.812716  0
-12.265558  1.816462  11.072968  0
-12.099531  1.737140  11.339556  0
-11.930914  1.654447  11.610752  0
-11.758797  1.568259  11.888706  0
-11.583461  1.477832  12.174031  0
-11.402981  1.386016  12.465927  0
-11.216686  1.292507  12.763638  0
-11.021660  1.202229  13.063242  0
-10.815261  1.108868  13.361759  0
-10.596876  1.018944  13.659060  0
-10.365509  0.928928  13.953039  0
-10.116691  0.839641  14.241417  0
-9.848216  0.751224  14.523014  0
-9.559387  0.664047  14.796442  0
-9.253239  0.580000  15.062501  0
-8.939129  0.492419  15.329670  0
-8.618248  0.404148  15.595120  0
-8.303165  0.312943  15.870728  0
-7.995780  0.217655  16.155260  0
-7.687728  0.121147  16.439457  0
-7.375467  0.030210  16.720215  0
-7.062233  -0.058021  17.002319  0
-6.742428  -0.139545  17.277761  0
-6.415960  -0.212883  17.544996  0
-6.071962  -0.272737  17.787737  0
-5.721895  -0.331199  18.024017  0
-5.360951  -0.387491  18.240599  0
-4.980357  -0.449181  18.414312  0
-4.592445  -0.529741  18.542168  0
-4.204982  -0.638711  18.599630  0
-3.837644  -0.780703  18.565336  0
-3.509096  -0.958480  18.422380  0
-3.225569  -1.158545  18.211302  0
-3.006195  -1.376309  17.925428  0
-2.853600  -1.606350  17.589901  0
-2.767637  -1.847879  17.224323  0
-2.726730  -2.096474  16.852512  0
-2.738670  -2.350185  16.488876  0
-2.795156  -2.608443  16.143646  0
-2.887396  -2.868193  15.820933  0
-3.016709  -3.121239  15.529745  0
-3.178082  -3.364762  15.266775  0
-3.374012  -3.594081  15.031406  0
-3.595980  -3.808155  14.816133  0
-3.843953  -4.002986  14.618957  0
-4.115694  -4.176428  14.435122  0
-4.399853  -4.331902  14.256495  0
-4.695558  -4.464796  14.078142  0
-4.993784  -4.583335  13.896921  0
-5.293260  -4.690635  13.709435  0
-5.593453  -4.789263  13.515368  0
-5.890902  -4.883097  13.314903  0
-6.179909  -4.977954  13.106065  0
-6.448478  -5.080903  12.886365  0
-6.686794  -5.196695  12.655149  0
-6.883060  -5.325625  12.414569  0
-7.027596  -5.472433  12.166146  0
-7.117676  -5.635050  11.914244  0
-3.797558  28.258059  4.596334  0
-4.022123  27.787960  4.815732  0
-4.259429  27.307005  5.039204  0
-4.500201  26.817137  5.270731  0
-4.735515  26.321222  5.511862  0
-4.954704  25.819040  5.759206  0
-5.159086  25.309599  6.010704  0
-5.345466  24.789600  6.261786  0
-5.505166  24.252628  6.503937  0
-5.642587  23.699566  6.739263  0
-5.745686  23.126167  6.965252  0
-5.814729  22.537760  7.188869  0
-5.856191  21.940514  7.414612  0
-5.873468  21.337704  7.644630  0
-5.854259  20.724606  7.880158  0
-5.812838  20.107449  8.126051  0
-5.756536  19.485750  8.381765  0
-5.695944  18.863623  8.643045  0
-5.617513  18.219891  8.890668  0
-5.538333  17.565546  9.118158  0
-5.470488  16.911911  9.326762  0
-5.406798  16.258068  9.522236  0
-5.351473  15.607911  9.713429  0
-5.317507  14.970490  9.902122  0
-5.302978  14.333567  10.076123  0
-5.339010  13.708838  10.234530  0
-5.399144  13.082180  10.355468  0
-5.481279  12.452857  10.451760  0
-5.580631  11.826794  10.547999  0
-5.676485  11.197476  10.654160  0
-5.774114  10.566370  10.774618  0
-5.853166  9.924381  10.897460  0
-5.927337  9.272640  11.017643  0
-6.002270  8.615741  11.128166  0
-6.064920  7.954038  11.215275  0
-6.121012  7.290736  11.275209  0
-6.183380  6.634614  11.319362  0
-6.242607  5.985943  11.352760  0
-6.298588  5.341184  11.381927  0
-6.341169  4.705066  11.408751  0
-6.357203  4.072838  11.428865  0
-6.376252  3.450092  11.448505  0
-6.395883  2.838086  11.456080  0
-6.414497  2.235426  11.442975  0
-6.435942  1.642601  11.413148  0
-6.456997  1.060991  11.370336  0
-6.479139  0.488220  11.325123  0
-6.501760  -0.075021  11.283848  0
-6.519390  -0.629640  11.247638  0
-6.536224  -1.175486  11.219858  0
-6.559040  -1.708113  11.201081  0
-6.589573  -2.228115  11.189587  0
-6.640289  -2.732678  11.191078  0
-6.704869  -3.219250  11.204277  0
-6.782849  -3.687707  11.231964  0
-6.859295  -4.141692  11.278693  0
-6.948501  -4.576437  11.347712  0
-7.029024  -4.996828  11.436551  0
-7.097938  -5.406357  11.544496  0
-12.583744  2.140537  11.165373  0
-12.771689  2.352967  11.542165  0
-12.989663  2.539412  11.929154  0
-13.224241  2.723029  12.309204  0
-13.455594  2.929500  12.665305  0
-13.660540  3.186770  12.967461  0
-13.814222  3.508733  13.208651  0
-13.888843  3.897682  13.375316  0
-13.863813  4.340875  13.460206  0
-13.740961  4.809472  13.464140  0
-13.520258  5.281065  13.375786  0
-13.256598  5.755090  13.248459  0
-12.974842  6.234696  13.101047  0
-12.685400  6.727768  12.943825  0
-12.397868  7.241162  12.784389  0
-12.129165  7.774259  12.635539  0
-11.876183  8.307147  12.475963  0
-11.639696  8.831533  12.311466  0
-11.413769  9.351071  12.152217  0
-11.158680  9.843210  11.992548  0
-10.882678  10.333460  11.831779  0
-10.593507  10.828592  11.668792  0
-10.276764  11.318890  11.493884  0
-9.948664  11.816585  11.312914  0
-9.631437  12.339702  11.125797  0
-9.329175  12.893153  10.938744  0
-9.057053  13.478027  10.762509  0
-8.823965  14.091133  10.605523  0
-8.638742  14.726619  10.468992  0
-8.497468  15.372395  10.348781  0
-8.390333  16.017666  10.236281  0
-8.299262  16.653040  10.128580  0
-8.209061  17.270910  10.038705  0
-8.121857  17.879206  9.975988  0
-8.038007  18.483685  9.938902  0
-7.932402  19.085741  9.907928  0
-7.806714  19.688128  9.870738  0
-7.637447  20.280458  9.798407  0
-7.447087  20.857330  9.676691  0
-7.247925  21.405817  9.501792  0
-7.044745  21.934458  9.287356  0
-6.835551  22.449688  9.055071  0
-6.611517  22.958349  8.825070  0
-6.369823  23.469872  8.609741  0
-6.115211  23.985952  8.416511  0
-5.851428  24.498272  8.243528  0
-5.580484  25.005316  8.083824  0
-5.301977  25.502886  7.932224  0
-5.000197  25.974812  7.777977  0
-4.670947  26.417606  7.615031  0
-4.328310  26.818481  7.430163  0
-3.994736  27.182499  7.221979  0
-3.706670  27.488110  6.967024  0
-3.520791  27.713860  6.645527  0
-3.446483  27.869572  6.267159  0
-3.435283  27.998253  5.871877  0
-3.523664  28.097614  5.455400  0
-3.657856  28.183889  5.028635  0
-12.427392  2.056430  11.438164  0
-12.622429  2.261654  11.825594  0
-12.842281  2.447502  12.220347  0
-13.073531  2.637958  12.603610  0
-13.294318  2.858498  12.956783  0
-13.477990  3.135522  13.251952  0
-13.597182  3.482634  13.467777  0
-13.626776  3.892788  13.593693  0
-13.561200  4.345565  13.637925  0
-13.405582  4.813701  13.606293  0
-13.165142  5.279949  13.490863  0
-12.893703  5.750133  13.346512  0
-12.611945  6.232584  13.189903  0
-12.329611  6.734779  13.031419  0
-12.060510  7.267080  12.885767  0
-11.812993  7.821665  12.752777  0
-11.590085  8.384997  12.617908  0
-11.392590  8.947790  12.481627  0
-11.218686  9.516500  12.357140  0
-11.012838  10.057639  12.225861  0
-10.791503  10.600080  12.090743  0
-10.547894  11.135869  11.939597  0
-10.261439  11.649651  11.763273  0
-9.970613  12.171827  11.573318  0
-9.673473  12.704412  11.382140  0
-9.394154  13.262896  11.199987  0
-9.132062  13.841597  11.041043  0
-8.906275  14.443624  10.907732  0
-8.711353  15.059749  10.795887  0
-8.551893  15.686936  10.692410  0
-8.406404  16.306870  10.590950  0
-8.263258  16.914141  10.490198  0
-8.115710  17.508877  10.397876  0
-7.972230  18.098383  10.324557  0
-7.818953  18.683537  10.265657  0
-7.651403  19.273319  10.209800  0
-7.459075  19.862803  10.138506  0
-7.237591  20.445099  10.028490  0
-7.012430  21.012245  9.877844  0
-6.792421  21.554768  9.686608  0
-6.575800  22.087132  9.473185  0
-6.354402  22.605822  9.253098  0
-6.121001  23.122099  9.039703  0
-5.871491  23.637058  8.839689  0
-5.609210  24.150656  8.656081  0
-5.336360  24.654388  8.483630  0
-5.054990  25.146862  8.315754  0
-4.759991  25.619734  8.148651  0
-4.443199  26.052721  7.965192  0
-4.118559  26.445768  7.764279  0
-3.825319  26.773848  7.518688  0
-3.591169  27.046555  7.232018  0
-3.481311  27.236603  6.877187  0
-3.456857  27.381973  6.489843  0
-3.518201  27.499556  6.084341  0
-3.668084  27.600256  5.665001  0
-3.845267  27.696541  5.242188  0
-12.268797  1.969593  11.713433  0
-12.470516  2.168322  12.108701  0
-12.691533  2.354401  12.507677  0
-12.916658  2.552932  12.893188  0
-13.122149  2.790765  13.239624  0
-13.281469  3.088534  13.520881  0
-13.358558  3.460955  13.700745  0
-13.345573  3.887940  13.786173  0
-13.242171  4.344730  13.791508  0
-13.052133  4.807971  13.720022  0
-12.798123  5.268836  13.587010  0
-12.517660  5.734089  13.426117  0
-12.235973  6.219555  13.261567  0
-11.962282  6.733331  13.105680  0
-11.703591  7.279970  12.967333  0
-11.476659  7.857369  12.855338  0
-11.282119  8.447277  12.746735  0
-11.120886  9.045621  12.643943  0
-10.972519  9.640465  12.547337  0
-10.810789  10.226448  12.450316  0
-10.641649  10.818013  12.347172  0
-10.426903  11.381260  12.211245  0
-10.190436  11.934565  12.042816  0
-9.931638  12.477240  11.853329  0
-9.673276  13.030135  11.662295  0
-9.413186  13.593190  11.491158  0
-9.154238  14.164040  11.353863  0
-8.927716  14.756450  11.238684  0
-8.714130  15.355064  11.139828  0
-8.535154  15.965805  11.046668  0
-8.350945  16.565029  10.947788  0
-8.159787  17.150990  10.843950  0
-7.954402  17.723269  10.740248  0
-7.750406  18.293764  10.650314  0
-7.533256  18.865608  10.570312  0
-7.304145  19.444258  10.488136  0
-7.055255  20.020027  10.383289  0
-6.799206  20.590134  10.243707  0
-6.554384  21.148684  10.073998  0
-6.321458  21.690844  9.877269  0
-6.093597  22.224236  9.669039  0
-5.860876  22.749109  9.460327  0
-5.615548  23.269573  9.259619  0
-5.356261  23.785156  9.068882  0
-5.083621  24.289948  8.884272  0
-4.799501  24.775898  8.699440  0
-4.506683  25.243196  8.512427  0
-4.205517  25.670542  8.309354  0
-3.914158  26.037369  8.071540  0
-3.669957  26.339434  7.793955  0
-3.525137  26.566591  7.462838  0
-3.482965  26.736393  7.091097  0
-3.526029  26.873173  6.698096  0
-3.652815  26.987907  6.290909  0
-3.844480  27.094395  5.876873  0
-4.054664  27.201157  5.459648  0
-12.109163  1.877610  11.993435  0
-12.315212  2.072912  12.394612  0
-12.535799  2.260181  12.797483  0
-12.750654  2.469347  13.179745  0
-12.939672  2.724125  13.518690  0
-13.068132  3.045382  13.776179  0
-13.101546  3.443097  13.915770  0
-13.047911  3.881485  13.961001  0
-12.911280  4.337418  13.927696  0
-12.690045  4.791331  13.816568  0
-12.417081  5.244128  13.659527  0
-12.126977  5.705916  13.484304  0
-11.843719  6.195380  13.312187  0
-11.575223  6.719326  13.159270  0
-11.330359  7.284746  13.035658  0
-11.117881  7.879572  12.938002  0
-10.948708  8.494385  12.859486  0
-10.813961  9.118421  12.790375  0
-10.691986  9.740468  12.727816  0
-10.559963  10.358362  12.663940  0
-10.408155  10.970779  12.585212  0
-10.232400  11.570557  12.473957  0
-10.041977  12.159325  12.323442  0
-9.827303  12.731420  12.142460  0
-9.583433  13.290362  11.960865  0
-9.334887  13.856384  11.807238  0
-9.089427  14.430284  11.682707  0
-8.851617  15.012998  11.581014  0
-8.613268  15.595745  11.485336  0
-8.401356  16.189846  11.391660  0
-8.198992  16.782518  11.292037  0
-7.956862  17.347561  11.173105  0
-7.699789  17.903038  11.053121  0
-7.440548  18.462017  10.945150  0
-7.174315  19.026455  10.845302  0
-6.893955  19.593431  10.736158  0
-6.610249  20.157734  10.605264  0
-6.337182  20.719360  10.447647  0
-6.080853  21.271645  10.267848  0
-5.836964  21.814602  10.071259  0
-5.597289  22.350996  9.871622  0
-5.350369  22.878576  9.672369  0
-5.092158  23.398048  9.476933  0
-4.818868  23.904491  9.283279  0
-4.536224  24.389170  9.083367  0
-4.250993  24.835091  8.861923  0
-3.965995  25.254313  8.633224  0
-3.724825  25.594950  8.357388  0
-3.547421  25.868946  8.042995  0
-3.480136  26.069874  7.684660  0
-3.504858  26.227375  7.302443  0
-3.625133  26.356926  6.906018  0
-3.809347  26.473705  6.503014  0
-4.039157  26.587006  6.096554  0
-4.276642  26.702600  5.686522  0
-11.945436  1.783149  12.278683  0
-12.155035  1.976603  12.684423  0
-12.373621  2.167427  13.089031  0
-12.576216  2.388606  13.466058  0
-12.741161  2.664006  13.789643  0
-12.828127  3.015330  14.009116  0
-12.827741  3.426820  14.118107  0
-12.733746  3.869693  14.117574  0
-12.558827  4.318876  14.036478  0
-12.312169  4.762403  13.892620  0
-12.021740  5.206758  13.712180  0
-11.721087  5.664498  13.522429  0
-11.435017  6.160485  13.344606  0
-11.170902  6.697182  13.197643  0
-10.936153  7.280312  13.087994  0
-10.739702  7.893625  13.009955  0
-10.587713  8.526720  12.955931  0
-10.473456  9.170571  12.919475  0
-10.370542  9.813486  12.890383  0
-10.256807  10.452911  12.859159  0
-10.119884  11.084840  12.808921  0
-9.967306  11.708670  12.722627  0
-9.801044  12.316928  12.589637  0
-9.608579  12.904028  12.424143  0
-9.376288  13.469815  12.257046  0
-9.144115  14.045294  12.117558  0
-8.894287  14.618093  12.001806  0
-8.643320  15.196556  11.905464  0
-8.378038  15.768161  11.804043  0
-8.146194  16.356972  11.707781  0
-7.910404  16.936766  11.596983  0
-7.642233  17.495586  11.465236  0
-7.346103  18.043346  11.327998  0
-7.056367  18.602121  11.207425  0
-6.752159  19.161642  11.088778  0
-6.443815  19.721628  10.959483  0
-6.141780  20.278450  10.810830  0
-5.857884  20.834749  10.643244  0
-5.593391  21.383888  10.459478  0
-5.338606  21.929457  10.267035  0
-5.084716  22.466694  10.074248  0
-4.822057  22.990788  9.878805  0
-4.548503  23.495510  9.674967  0
-4.268310  23.975866  9.458112  0
-3.994498  24.412659  9.212749  0
-3.743009  24.798998  8.935088  0
-3.536840  25.131390  8.632546  0
-3.459930  25.366558  8.274624  0
-3.469095  25.552820  7.896898  0
-3.561472  25.707916  7.512099  0
-3.745319  25.837975  7.119389  0
-3.981871  25.959063  6.723906  0
-4.241920  26.080002  6.326147  0
-4.497797  26.201759  5.922940  0
-11.775629  1.687477  12.570177  0
-11.986412  1.881854  12.978220  0
-12.197779  2.082097  13.378834  0
-12.382216  2.320021  13.745132  0
-12.520531  2.616581  14.048759  0
-12.575441  2.988297  14.240157  0
-12.536494  3.410540  14.308316  0
-12.398672  3.852322  14.256091  0
-12.189074  4.290576  14.127543  0
-11.921039  4.720675  13.952045  0
-11.612266  5.155739  13.748188  0
-11.300269  5.613730  13.545145  0
-11.009580  6.116269  13.364226  0
-10.750593  6.671443  13.227890  0
-10.525490  7.271569  13.132833  0
-10.341999  7.901289  13.074306  0
-10.205391  8.550707  13.045239  0
-10.105310  9.208931  13.037512  0
-10.015259  9.866882  13.039124  0
-9.909212  10.518869  13.035788  0
-9.774544  11.160887  13.007620  0
-9.625655  11.793491  12.938684  0
-9.468863  12.411560  12.825575  0
-9.291382  13.008999  12.680468  0
-9.071561  13.583489  12.527691  0
-8.835643  14.158594  12.396683  0
-8.576851  14.733954  12.285900  0
-8.312181  15.310747  12.190713  0
-8.040106  15.887750  12.089612  0
-7.786749  16.471378  11.984858  0
-7.530139  17.047966  11.863935  0
-7.246356  17.607243  11.722359  0
-6.938533  18.160049  11.577517  0
-6.623876  18.717960  11.443447  0
-6.293708  19.273266  11.307600  0
-5.967293  19.829298  11.163486  0
-5.654191  20.382311  11.003284  0
-5.364518  20.936874  10.830156  0
-5.092171  21.487000  10.647047  0
-4.825631  22.031910  10.458658  0
-4.556566  22.556904  10.260084  0
-4.280199  23.064226  10.053386  0
-4.007832  23.531025  9.815006  0
-3.747866  23.959358  9.547421  0
-3.543800  24.312628  9.223751  0
-3.400458  24.615665  8.877032  0
-3.395676  24.839434  8.496488  0
-3.480840  25.020891  8.106608  0
-3.654990  25.174559  7.720346  0
-3.894715  25.312420  7.336054  0
-4.165345  25.443676  6.951987  0
-4.441469  25.572258  6.562917  0
-4.707867  25.697834  6.165740  0
-11.598560  1.592410  12.868426  0
-11.807057  1.790046  13.277102  0
-12.006411  2.002693  13.671147  0
-12.171888  2.257695  14.024409  0
-12.280834  2.575868  14.303963  0
-12.301601  2.964409  14.462831  0
-12.213956  3.393112  14.475165  0
-12.038268  3.826777  14.371658  0
-11.804567  4.251992  14.204844  0
-11.514825  4.667980  13.998386  0
-11.188644  5.095305  13.773300  0
-10.863979  5.555621  13.559226  0
-10.569907  6.069286  13.380806  0
-10.315331  6.643569  13.255432  0
-10.099350  7.260536  13.175133  0
-9.927440  7.906435  13.137043  0
-9.804442  8.569513  13.133124  0
-9.714806  9.238626  13.150739  0
-9.633937  9.906427  13.178585  0
-9.525047  10.564628  13.196095  0
-9.384660  11.211218  13.181761  0
-9.233368  11.847782  13.130486  0
-9.075005  12.465884  13.032397  0
-8.895609  13.061979  12.898010  0
-8.682470  13.641764  12.757541  0
-8.438183  14.216882  12.631005  0
-8.176620  14.798566  12.525129  0
-7.905039  15.381330  12.433251  0
-7.629426  15.965573  12.334694  0
-7.363740  16.551178  12.226768  0
-7.096139  17.129833  12.099539  0
-6.803198  17.693497  11.950764  0
-6.491241  18.252903  11.802176  0
-6.154761  18.808704  11.655629  0
-5.809544  19.363853  11.508556  0
-5.471432  19.916977  11.351956  0
-5.152675  20.471680  11.186410  0
-4.857841  21.026123  11.009109  0
-4.577794  21.571394  10.820215  0
-4.301752  22.100899  10.621476  0
-4.028861  22.594185  10.395771  0
-3.762093  23.057823  10.148968  0
-3.538353  23.456093  9.843990  0
-3.386681  23.787420  9.486763  0
-3.304180  24.069630  9.107789  0
-3.370379  24.287617  8.709214  0
-3.530299  24.468838  8.312609  0
-3.771119  24.628527  7.929456  0
-4.050300  24.777521  7.554649  0
-4.342279  24.920498  7.181028  0
-4.631301  25.057693  6.802111  0
-4.906384  25.187914  6.412927  0
-11.413830  1.499503  13.171059  0
-11.617825  1.700783  13.580712  0
-11.805309  1.924209  13.970346  0
-11.951153  2.194897  14.312351  0
-12.022930  2.536360  14.560166  0
-11.994045  2.942417  14.666751  0
-11.862228  3.370919  14.623566  0
-11.655146  3.793389  14.472151  0
-11.403108  4.203122  14.270309  0
-11.092934  4.606990  14.035826  0
-10.751167  5.032251  13.796131  0
-10.417685  5.500072  13.578365  0
-10.122354  6.029871  13.408219  0
-9.869080  6.617853  13.289186  0
-9.660866  7.250281  13.223875  0
-9.499971  7.911439  13.206553  0
-9.386961  8.585150  13.224491  0
-9.305903  9.261349  13.263621  0
-9.221656  9.931962  13.308813  0
-9.106382  10.594043  13.339239  0
-8.962275  11.244285  13.338247  0
-8.805517  11.880960  13.299742  0
-8.638840  12.493028  13.208263  0
-8.455778  13.086555  13.084356  0
-8.243670  13.668374  12.952718  0
-7.999484  14.248256  12.833446  0
-7.733118  14.834465  12.731163  0
-7.456442  15.423617  12.640947  0
-7.178038  16.014833  12.546343  0
-6.905850  16.605526  12.437852  0
-6.632378  17.189709  12.310078  0
-6.336514  17.760351  12.161466  0
-6.013996  18.323532  12.009540  0
-5.664356  18.880602  11.855888  0
-5.307984  19.436665  11.698420  0
-4.962356  19.990559  11.532655  0
-4.639942  20.542530  11.354936  0
-4.340487  21.090218  11.166683  0
-4.060464  21.611671  10.953863  0
-3.794727  22.096333  10.712944  0
-3.546985  22.541843  10.442524  0
-3.363316  22.916872  10.108786  0
-3.263838  23.228863  9.728159  0
-3.265833  23.491554  9.325334  0
-3.391008  23.711126  8.916349  0
-3.611843  23.898691  8.519708  0
-3.895549  24.069157  8.140348  0
-4.202697  24.230242  7.772970  0
-4.510748  24.384838  7.408710  0
-4.809646  24.531914  7.039516  0
-5.091624  24.668344  6.660016  0
-11.219486  1.408289  13.476742  0
-11.417116  1.613659  13.888083  0
-11.592394  1.846228  14.275760  0
-11.713205  2.134670  14.602455  0
-11.742155  2.497984  14.812269  0
-11.657293  2.917621  14.856737  0
-11.478086  3.340691  14.749899  0
-11.248240  3.750579  14.560607  0
-10.980116  4.146280  14.328349  0
-10.654991  4.543131  14.072864  0
-10.303315  4.972296  13.825689  0
-9.966843  5.454448  13.614685  0
-9.671696  6.002161  13.455084  0
-9.417875  6.599629  13.340961  0
-9.217039  7.246395  13.292105  0
-9.065903  7.918951  13.292982  0
-8.961782  8.600428  13.329303  0
-8.886314  9.280794  13.386666  0
-8.799358  9.955349  13.443888  0
-8.676576  10.619532  13.482604  0
-8.523494  11.268664  13.488260  0
-8.355440  11.897626  13.450202  0
-8.178265  12.503338  13.365267  0
-7.988230  13.092558  13.247651  0
-7.774313  13.674960  13.122556  0
-7.532277  14.259817  13.009796  0
-7.267464  14.852671  12.912747  0
-6.989758  15.447269  12.824700  0
-6.709881  16.044731  12.733355  0
-6.433772  16.644156  12.630694  0
-6.155188  17.235264  12.508528  0
-5.853149  17.811121  12.362444  0
-5.519784  18.377951  12.208310  0
-5.160092  18.936876  12.048812  0
-4.794911  19.491055  11.878078  0
-4.444240  20.041313  11.696590  0
-4.125926  20.576349  11.490866  0
-3.837642  21.093735  11.265465  0
-3.585258  21.565332  11.001047  0
-3.360485  21.995724  10.706638  0
-3.230633  22.346081  10.345085  0
-3.186233  22.644817  9.947321  0
-3.245117  22.899668  9.535084  0
-3.436997  23.117735  9.124578  0
-3.707544  23.314276  8.731333  0
-4.021552  23.496897  8.356363  0
-4.347684  23.669804  7.993246  0
-4.667088  23.834364  7.634018  0
-4.969414  23.988367  7.269743  0
-5.253023  24.130527  6.896110  0
-11.011192  1.317838  13.782123  0
-11.201269  1.527794  14.197165  0
-11.360520  1.770562  14.581653  0
-11.462265  2.071321  14.900820  0
-11.428409  2.461609  15.048538  0
-11.284769  2.888375  15.023724  0
-11.070604  3.303824  14.865479  0
-10.822170  3.701653  14.644328  0
-10.536978  4.088136  14.388398  0
-10.204803  4.486392  14.121914  0
-9.852257  4.926304  13.877859  0
-9.520784  5.429827  13.684751  0
-9.225093  5.990422  13.533631  0
-8.971227  6.595425  13.425876  0
-8.778334  7.252751  13.391919  0
-8.637440  7.932336  13.408653  0
-8.544879  8.618226  13.463187  0
-8.470346  9.301203  13.529236  0
-8.375415  9.977544  13.587276  0
-8.243248  10.641135  13.627069  0
-8.079205  11.286468  13.636413  0
-7.897194  11.905971  13.600149  0
-7.707149  12.502886  13.516104  0
-7.508252  13.087223  13.402109  0
-7.293119  13.671184  13.281647  0
-7.054043  14.261449  13.174274  0
-6.793980  14.859934  13.081765  0
-6.517410  15.461999  12.998662  0
-6.235692  16.066210  12.914060  0
-5.954890  16.671799  12.817250  0
-5.669039  17.266552  12.699259  0
-5.357918  17.844250  12.554928  0
-5.015007  18.412304  12.398440  0
-4.646591  18.968651  12.229255  0
-4.279565  19.515329  12.038473  0
-3.938740  20.044243  11.818209  0
-3.647609  20.539181  11.558704  0
-3.401463  21.000854  11.270208  0
-3.238050  21.397272  10.929739  0
-3.156158  21.737883  10.552073  0
-3.160205  22.030710  10.146832  0
-3.260103  22.287176  9.734337  0
-3.495824  22.511127  9.331831  0
-3.800653  22.719013  8.946654  0
-4.137862  22.913769  8.576532  0
-4.476204  23.096254  8.215745  0
-4.801984  23.268093  7.857407  0
-5.107255  23.427536  7.495518  0
-5.390086  23.573505  7.125037  0
-10.786576  1.228823  14.084832  0
-10.966317  1.442895  14.503836  0
-11.106249  1.695123  14.885242  0
-11.170427  2.014834  15.178204  0
-11.076610  2.425496  15.259489  0
-10.880877  2.854177  15.166406  0
-10.642756  3.261329  14.971358  0
-10.381634  3.650484  14.728556  0
-10.086529  4.033856  14.458254  0
-9.752211  4.440670  14.190590  0
-9.403078  4.897808  13.960106  0
-9.079395  5.421890  13.789398  0
-8.786476  5.992721  13.648602  0
-8.544363  6.609373  13.560919  0
-8.364502  7.272851  13.543522  0
-8.234900  7.954478  13.570840  0
-8.150589  8.640903  13.632421  0
-8.068901  9.323754  13.694620  0
-7.960729  9.998307  13.744454  0
-7.816144  10.657323  13.780299  0
-7.637805  11.293174  13.788143  0
-7.441801  11.903567  13.751829  0
-7.236086  12.494967  13.672685  0
-7.028899  13.076681  13.561448  0
-6.813039  13.662827  13.445335  0
-6.578441  14.258284  13.340473  0
-6.322035  14.862196  13.251502  0
-6.045870  15.469918  13.172814  0
-5.760225  16.078537  13.092865  0
-5.471730  16.686180  12.999451  0
-5.176283  17.280630  12.882833  0
-4.858288  17.855202  12.736147  0
-4.510910  18.413626  12.566034  0
-4.146690  18.959023  12.374786  0
-3.804476  19.471363  12.134584  0
-3.514078  19.947798  11.844955  0
-3.287636  20.386980  11.518251  0
-3.149694  20.772846  11.150578  0
-3.105966  21.106127  10.752016  0
-3.147639  21.399448  10.339521  0
-3.305491  21.657478  9.930659  0
-3.570934  21.891205  9.538983  0
-3.893011  22.111231  9.163197  0
-4.241519  22.318272  8.799595  0
-4.584736  22.510693  8.439915  0
-4.910402  22.687950  8.080029  0
-5.213077  22.850197  7.716962  0
-5.494580  22.998158  7.347613  0
-10.542511  1.141495  14.380706  0
-10.707550  1.360837  14.801704  0
-10.832037  1.617051  15.186775  0
-10.844216  1.958717  15.434708  0
-10.678662  2.388282  15.422980  0
-10.452982  2.814656  15.287689  0
-10.202013  3.216358  15.073280  0
-9.933794  3.603243  14.820079  0
-9.634733  3.991567  14.547439  0
-9.302767  4.413459  14.289587  0
-8.962262  4.891654  14.081173  0
-8.647556  5.429425  13.928917  0
-8.369400  6.011932  13.810832  0
-8.145304  6.638577  13.745622  0
-7.981960  7.303282  13.740338  0
-7.867418  7.984972  13.776576  0
-7.777785  8.668270  13.828659  0
-7.684592  9.346788  13.879449  0
-7.563601  10.014919  13.921466  0
-7.402945  10.665807  13.951452  0
-7.207102  11.292453  13.957247  0
-6.993305  11.895988  13.923673  0
-6.773469  12.482355  13.845181  0
-6.557353  13.064168  13.737005  0
-6.340940  13.653392  13.622063  0
-6.109532  14.253624  13.520014  0
-5.854507  14.861891  13.433469  0
-5.576333  15.472573  13.355345  0
-5.284168  16.081558  13.276537  0
-4.987049  16.685787  13.179888  0
-4.684206  17.272503  13.054447  0
-4.366909  17.830849  12.888195  0
-4.033683  18.363394  12.684699  0
-3.707895  18.863613  12.434387  0
-3.427176  19.324318  12.126558  0
-3.220762  19.743801  11.769724  0
-3.105041  20.121017  11.378456  0
-3.083932  20.455757  10.964018  0
-3.154450  20.754349  10.544079  0
-3.346603  21.018219  10.133753  0
-3.635784  21.260939  9.746807  0
-3.976423  21.490864  9.381922  0
-4.327346  21.708979  9.022067  0
-4.670525  21.911793  8.663560  0
-4.996310  22.097389  8.303228  0
-5.295427  22.263573  7.939239  0
-5.567463  22.410215  7.568856  0
-10.274172  1.057805  14.664452  0
-10.414871  1.286970  15.074659  0
-10.510985  1.553094  15.444625  0
-10.448426  1.922897  15.606076  0
-10.252141  2.352416  15.550815  0
-10.013678  2.773788  15.398245  0
-9.758647  3.174798  15.181122  0
-9.487959  3.568001  14.930601  0
-9.190398  3.969283  14.668542  0
-8.865124  4.414576  14.434796  0
-8.540232  4.910032  14.248957  0
-8.245980  5.460732  14.121891  0
-7.985386  6.049438  14.022767  0
-7.780033  6.679711  13.973769  0
-7.630915  7.342435  13.974895  0
-7.520977  8.019855  14.006693  0
-7.426173  8.697215  14.048212  0
-7.321137  9.367474  14.087530  0
-7.184072  10.026210  14.121489  0
-7.004164  10.667467  14.144727  0
-6.788289  11.285639  14.147806  0
-6.555139  11.884255  14.115753  0
-6.321154  12.468596  14.041206  0
-6.097370  13.052275  13.934931  0
-5.879659  13.645332  13.822160  0
-5.648778  14.248302  13.719860  0
-5.392446  14.858668  13.630695  0
-5.109467  15.467789  13.549327  0
-4.810428  16.071558  13.462548  0
-4.506356  16.665398  13.351687  0
-4.204250  17.232468  13.199483  0
-3.907597  17.755428  12.984973  0
-3.621264  18.238125  12.714798  0
-3.365651  18.683233  12.395477  0
-3.177825  19.088181  12.024611  0
-3.069837  19.460587  11.622354  0
-3.065346  19.794930  11.195946  0
-3.162750  20.098379  10.769026  0
-3.384002  20.369553  10.359653  0
-3.688230  20.621662  9.975306  0
-4.032997  20.861206  9.608474  0
-4.387094  21.088299  9.249354  0
-4.730047  21.300854  8.890315  0
-5.052855  21.494225  8.528406  0
-5.348094  21.665529  8.162955  0
-5.616220  21.814434  7.792850  0
-9.983711  0.977824  14.935213  0
-10.079225  1.227237  15.305689  0
-10.113422  1.525098  15.604882  0
-10.011875  1.902234  15.713442  0
-9.814930  2.319190  15.658242  0
-9.575953  2.735230  15.509130  0
-9.322548  3.142710  15.305535  0
-9.052753  3.550354  15.070026  0
-8.760255  3.973997  14.832314  0
-8.449211  4.436769  14.622654  0
-8.146402  4.949629  14.467268  0
-7.874014  5.506816  14.357336  0
-7.635829  6.100830  14.276108  0
-7.444699  6.727827  14.234619  0
-7.305758  7.385953  14.236269  0
-7.196100  8.055224  14.260447  0
-7.093659  8.723245  14.291094  0
-6.974298  9.383658  14.318825  0
-6.818375  10.031875  14.343908  0
-6.618248  10.664409  14.361909  0
-6.381116  11.275451  14.362802  0
-6.128630  11.871298  14.331902  0
-5.879265  12.456589  14.260084  0
-5.649500  13.042595  14.155964  0
-5.429193  13.638517  14.043272  0
-5.195724  14.241688  13.937696  0
-4.935542  14.848881  13.841681  0
-4.646153  15.448261  13.748152  0
-4.342968  16.037464  13.638182  0
-4.041391  16.608519  13.492355  0
-3.757664  17.140865  13.286205  0
-3.509318  17.613293  12.999617  0
-3.299775  18.038729  12.654346  0
-3.136829  18.431787  12.273746  0
-3.047165  18.794771  11.866096  0
-3.055236  19.126717  11.437563  0
-3.158219  19.435171  11.009676  0
-3.383866  19.716377  10.598056  0
-3.700353  19.976183  10.215059  0
-4.051164  20.223164  9.848074  0
-4.407535  20.457600  9.487532  0
-4.752109  20.677004  9.125994  0
-5.070855  20.876026  8.760556  0
-5.367307  21.055481  8.393209  0
-5.634397  21.209225  8.021528  0
-9.670563  0.902327  15.191020  0
-9.723942  1.171905  15.518607  0
-9.698357  1.498649  15.740625  0
-9.581560  1.877445  15.826468  0
-9.384087  2.288475  15.772422  0
-9.148893  2.704828  15.638363  0
-8.898508  3.122586  15.449514  0
-8.635212  3.548808  15.241055  0
-8.353255  3.995486  15.033116  0
-8.061068  4.477986  14.854182  0
-7.780939  5.000146  14.721706  0
-7.531477  5.561553  14.626778  0
-7.311273  6.156456  14.556076  0
-7.134293  6.779242  14.519827  0
-6.999967  7.429922  14.518979  0
-6.886044  8.087341  14.534189  0
-6.772457  8.743268  14.554028  0
-6.637409  9.392571  14.571275  0
-6.460764  10.030656  14.587576  0
-6.236733  10.654835  14.600764  0
-5.977829  11.261370  14.598997  0
-5.706169  11.857124  14.566158  0
-5.446082  12.444803  14.495268  0
-5.210300  13.033808  14.393895  0
-4.985358  13.630141  14.279733  0
-4.748257  14.228983  14.165659  0
-4.483685  14.823078  14.050678  0
-4.192783  15.406208  13.931483  0
-3.897326  15.965190  13.773474  0
-3.615761  16.497435  13.565539  0
-3.373967  16.982439  13.284559  0
-3.209023  17.394287  12.913770  0
-3.091632  17.771717  12.510105  0
-3.028655  18.126341  12.095585  0
-3.045333  18.455835  11.669840  0
-3.147402  18.765949  11.247663  0
-3.368196  19.054459  10.842025  0
-3.680790  19.324032  10.460856  0
-4.033177  19.578405  10.096350  0
-4.391028  19.819342  9.736774  0
-4.736150  20.044956  9.374749  0
-5.060230  20.252449  9.007418  0
-5.355962  20.437267  8.635733  0
-5.617273  20.592648  8.259537  0
-9.339063  0.832566  15.432406  0
-9.363244  1.118570  15.727998  0
-9.304872  1.459869  15.908478  0
-9.170025  1.847196  15.967847  0
-8.971580  2.260242  15.916077  0
-8.738753  2.683414  15.790060  0
-8.493074  3.114436  15.622555  0
-8.238020  3.559548  15.440591  0
-7.969654  4.026209  15.262484  0
-7.697588  4.524905  15.113070  0
-7.440139  5.053569  14.999854  0
-7.208589  5.617382  14.916120  0
-7.004039  6.209722  14.853708  0
-6.839947  6.829174  14.822744  0
-6.704641  7.468258  14.816549  0
-6.582351  8.112370  14.823345  0
-6.452873  8.755807  14.830986  0
-6.299426  9.393815  14.837677  0
-6.101779  10.023564  14.845865  0
-5.853716  10.642094  14.852420  0
-5.574035  11.246151  14.844949  0
-5.285718  11.840857  14.807867  0
-5.015497  12.429228  14.736381  0
-4.771529  13.019224  14.636138  0
-4.542947  13.610924  14.512141  0
-4.303033  14.194911  14.375010  0
-4.043699  14.761360  14.218317  0
-3.767014  15.310898  14.046364  0
-3.506563  15.821606  13.809370  0
-3.273252  16.304533  13.520445  0
-3.107390  16.734745  13.158540  0
-3.023982  17.109163  12.738787  0
-3.004831  17.452969  12.306820  0
-3.043012  17.779377  11.881481  0
-3.144611  18.091084  11.466727  0
-3.353645  18.384285  11.072132  0
-3.651096  18.661892  10.699377  0
-3.994120  18.924438  10.342020  0
-4.347646  19.172371  9.988517  0
-4.691401  19.403744  9.629704  0
-5.018088  19.619162  9.264112  0
-5.314913  19.810450  8.890368  0
-5.579237  19.973324  8.510784  0
-8.998146  0.763806  15.668360  0
-9.003392  1.066635  15.940347  0
-8.924893  1.419187  16.093657  0
-8.777542  1.815234  16.136860  0
-8.576117  2.236758  16.084953  0
-8.345172  2.669686  15.971272  0
-8.107491  3.115959  15.824309  0
-7.860567  3.577255  15.663909  0
-7.606246  4.060051  15.512540  0
-7.351709  4.568419  15.385460  0
-7.112902  5.103244  15.287821  0
-6.897441  5.667486  15.213717  0
-6.708960  6.258105  15.161852  0
-6.549546  6.870756  15.134166  0
-6.409209  7.498402  15.123524  0
-6.272968  8.129328  15.119543  0
-6.126044  8.760873  15.115545  0
-5.950732  9.387880  15.110886  0
-5.728545  10.009923  15.110031  0
-5.461632  10.622355  15.108019  0
-5.161554  11.222027  15.089247  0
-4.859926  11.813968  15.042639  0
-4.580538  12.400307  14.962699  0
-4.332252  12.984980  14.847869  0
-4.099804  13.563437  14.703510  0
-3.867434  14.121417  14.524014  0
-3.632741  14.644348  14.296753  0
-3.399611  15.141948  14.041679  0
-3.199388  15.602062  13.724206  0
-3.042935  16.033600  13.359856  0
-2.973878  16.419434  12.940979  0
-2.972339  16.770788  12.502692  0
-3.033089  17.098478  12.074427  0
-3.159184  17.409311  11.663803  0
-3.358628  17.706354  11.278083  0
-3.632474  17.990028  10.916306  0
-3.956460  18.259985  10.571041  0
-4.297132  18.515362  10.228606  0
-4.634725  18.754538  9.879776  0
-4.957143  18.975866  9.520611  0
-5.253785  19.174271  9.150013  0
-5.521664  19.345493  8.769682  0
-8.659604  0.690112  15.912970  0
-8.648844  1.010878  16.162802  0
-8.558041  1.376496  16.297813  0
-8.401157  1.784087  16.330669  0
-8.197206  2.216107  16.278833  0
-7.969076  2.662717  16.175285  0
-7.735492  3.121819  16.044098  0
-7.499268  3.596386  15.905151  0
-7.258103  4.090808  15.774996  0
-7.021065  4.607460  15.667179  0
-6.798232  5.146396  15.583023  0
-6.595248  5.712337  15.518341  0
-6.415352  6.299900  15.474459  0
-6.253992  6.903067  15.447522  0
-6.103091  7.519006  15.431205  0
-5.948505  8.137189  15.416345  0
-5.780668  8.756213  15.399676  0
-5.580690  9.373058  15.382680  0
-5.340416  9.987410  15.370041  0
-5.055584  10.592129  15.354005  0
-4.740044  11.183275  15.317497  0
-4.427478  11.765913  15.250339  0
-4.146655  12.338967  15.136236  0
-3.895159  12.911903  14.992102  0
-3.667439  13.468441  14.808620  0
-3.462055  13.986635  14.560238  0
-3.281163  14.457094  14.250557  0
-3.124846  14.898399  13.906605  0
-3.001557  15.316757  13.532681  0
-2.942717  15.706528  13.119413  0
-2.950341  16.069407  12.685748  0
-3.025708  16.406900  12.256322  0
-3.170806  16.722208  11.848154  0
-3.374102  17.022207  11.466499  0
-3.632797  17.309879  11.111820  0
-3.935427  17.586033  10.776665  0
-4.258830  17.849609  10.447896  0
-4.581587  18.094395  10.110981  0
-4.891391  18.320526  9.762406  0
-5.185310  18.528082  9.402219  0
-5.454361  18.709967  9.027906  0
-8.329281  0.612274  16.171244  0
-8.302846  0.949673  16.398819  0
-8.201997  1.331988  16.520409  0
-8.034838  1.754014  16.539898  0
-7.829659  2.197784  16.490723  0
-7.604331  2.656620  16.395786  0
-7.377366  3.127648  16.277561  0
-7.150071  3.613324  16.156128  0
-6.922894  4.116868  16.045830  0
-6.699769  4.639684  15.953762  0
-6.488203  5.183141  15.882191  0
-6.293346  5.749644  15.826965  0
-6.115523  6.332464  15.787116  0
-5.945354  6.927188  15.757309  0
-5.778832  7.531620  15.733742  0
-5.602156  8.135834  15.705118  0
-5.408175  8.741146  15.671700  0
-5.189611  9.346758  15.639530  0
-4.932224  9.947520  15.606688  0
-4.634705  10.537502  15.564243  0
-4.313411  11.114951  15.497696  0
-4.002882  11.675617  15.383286  0
-3.730291  12.225842  15.213049  0
-3.480151  12.780380  15.026882  0
-3.277102  13.300877  14.774681  0
-3.133950  13.768003  14.437530  0
-3.030880  14.196482  14.065845  0
-2.959929  14.601120  13.677586  0
-2.929094  14.985322  13.271770  0
-2.944067  15.352796  12.852637  0
-3.027364  15.700747  12.432493  0
-3.181633  16.026543  12.029337  0
-3.391941  16.333143  11.651165  0
-3.642330  16.625843  11.296852  0
-3.929613  16.906082  10.965485  0
-4.236882  17.174616  10.645356  0
-4.544487  17.426506  10.321240  0
-4.842044  17.660130  9.985088  0
-5.121318  17.871683  9.635230  0
-5.378784  18.057110  9.269024  0
-8.005316  0.534102  16.435757  0
-7.959341  0.890408  16.639122  0
-7.848763  1.289423  16.750015  0
-7.677689  1.724042  16.765436  0
-7.470575  2.179626  16.714993  0
-7.248581  2.649554  16.624508  0
-7.027689  3.131041  16.518019  0
-6.810405  3.626547  16.412043  0
-6.593759  4.138017  16.317341  0
-6.381045  4.666588  16.239746  0
-6.176575  5.214084  16.178867  0
-5.983623  5.779299  16.129978  0
-5.801306  6.357174  16.092211  0
-5.617002  6.944078  16.055866  0
-5.428957  7.534810  16.019630  0
-5.227748  8.124078  15.972402  0
-5.013243  8.713157  15.917761  0
-4.775859  9.299587  15.858765  0
-4.508749  9.879805  15.795655  0
-4.210504  10.444252  15.706728  0
-3.902673  10.990780  15.575373  0
-3.613082  11.523790  15.395416  0
-3.364108  12.045786  15.160719  0
-3.148401  12.563004  14.893894  0
-2.987906  13.047510  14.569078  0
-2.917810  13.479816  14.183856  0
-2.908566  13.879061  13.786560  0
-2.924139  14.261642  13.390135  0
-2.957013  14.630888  12.992590  0
-3.042132  14.984556  12.592672  0
-3.194265  15.320787  12.203537  0
-3.405819  15.638572  11.833208  0
-3.654266  15.938679  11.483002  0
-3.932881  16.223518  11.152373  0
-4.226098  16.494627  10.832450  0
-4.521317  16.752171  10.513723  0
-4.804391  16.991364  10.185702  0
-5.069417  17.208645  9.844753  0
-5.315089  17.400986  9.489916  0
-7.688025  0.453181  16.712423  0
-7.627931  0.827725  16.901417  0
-7.503210  1.244879  16.993664  0
-7.323450  1.695601  16.996216  0
-7.114586  2.163121  16.941856  0
-6.897484  2.642873  16.857710  0
-6.683417  3.132843  16.760817  0
-6.473366  3.636499  16.666798  0
-6.264631  4.155125  16.584837  0
-6.058054  4.688648  16.519211  0
-5.854039  5.239024  16.464443  0
-5.657501  5.803144  16.418699  0
-5.463249  6.375460  16.376482  0
-5.260540  6.951133  16.327261  0
-5.049243  7.526907  16.272306  0
-4.828818  8.096075  16.201670  0
-4.596469  8.660585  16.112122  0
-4.350739  9.222739  16.020287  0
-4.084933  9.769869  15.901258  0
-3.804646  10.300174  15.747929  0
-3.531104  10.813033  15.542627  0
-3.283538  11.315205  15.291063  0
-3.077146  11.807240  14.990150  0
-2.920865  12.285824  14.642692  0
-2.820645  12.739393  14.263248  0
-2.818600  13.155523  13.866303  0
-2.898344  13.536047  13.477360  0
-2.981109  13.906448  13.098351  0
-3.077659  14.265617  12.724346  0
-3.223041  14.609522  12.357862  0
-3.421876  14.938063  12.002922  0
-3.666086  15.249302  11.664594  0
-3.939665  15.540977  11.340763  0
-4.223799  15.817459  11.021771  0
-4.506534  16.077574  10.702930  0
-4.773701  16.318436  10.376070  0
-5.026071  16.541344  10.038916  0
-5.259630  16.740513  9.689816  0
-7.370041  0.374870  16.992193  0
-7.294552  0.768926  17.163208  0
-7.151812  1.206873  17.231474  0
-6.965591  1.670466  17.224905  0
-6.757744  2.147886  17.169827  0
-6.546075  2.635820  17.088554  0
-6.337827  3.133794  16.999220  0
-6.132408  3.643906  16.914579  0
-5.927664  4.168103  16.841902  0
-5.720285  4.705523  16.782135  0
-5.511485  5.256205  16.729029  0
-5.305910  5.817458  16.681477  0
-5.096889  6.381876  16.629971  0
-4.875380  6.941978  16.558638  0
-4.647676  7.498417  16.478851  0
-4.413844  8.040463  16.367950  0
-4.176467  8.574310  16.236769  0
-3.932106  9.101028  16.092224  0
-3.682094  9.613588  15.911941  0
-3.444680  10.105981  15.678259  0
-3.228795  10.585928  15.398741  0
-3.042937  11.058603  15.081638  0
-2.907861  11.520596  14.720150  0
-2.818098  11.973255  14.328891  0
-2.802629  12.403431  13.926729  0
-2.880144  12.803692  13.539039  0
-2.998628  13.181233  13.171284  0
-3.129861  13.545052  12.820559  0
-3.285167  13.896248  12.483105  0
-3.469463  14.233869  12.152378  0
-3.696737  14.555876  11.833328  0
-3.956976  14.858740  11.521572  0
-4.231253  15.142312  11.211044  0
-4.502417  15.407280  10.895058  0
-4.757128  15.651612  10.568574  0
-4.993594  15.876580  10.231378  0
-5.209947  16.079771  9.882001  0
-7.036722  0.307559  17.252266  0
-6.944127  0.722451  17.404156  0
-6.790771  1.175453  17.459854  0
-6.602114  1.649180  17.449289  0
-6.395822  2.134752  17.390804  0
-6.188033  2.630027  17.311087  0
-5.983239  3.133899  17.226379  0
-5.780782  3.648199  17.147585  0
-5.574541  4.175282  17.077925  0
-5.362260  4.713902  17.017281  0
-5.145362  5.261235  16.958214  0
-4.928129  5.816059  16.900454  0
-4.706380  6.368520  16.830006  0
-4.474074  6.907262  16.725487  0
-4.238169  7.431667  16.596804  0
-4.007412  7.937387  16.429571  0
-3.778357  8.437430  16.250862  0
-3.551024  8.929846  16.049255  0
-3.339854  9.404321  15.801869  0
-3.164558  9.862643  15.496075  0
-3.015915  10.317783  15.162434  0
-2.909861  10.766623  14.797522  0
-2.851344  11.207285  14.405328  0
-2.849831  11.638771  14.000179  0
-2.909134  12.054188  13.602745  0
-3.038226  12.447271  13.235629  0
-3.194673  12.822905  12.894313  0
-3.368628  13.182014  12.576247  0
-3.556536  13.528641  12.271344  0
-3.769167  13.859248  11.976757  0
-4.007935  14.173354  11.684822  0
-4.262016  14.466093  11.387899  0
-4.514470  14.738825  11.079945  0
-4.756970  14.991935  10.760442  0
-4.977560  15.221386  10.424937  0
-5.175264  15.426727  10.074762  0
-6.690416  0.251232  17.497114  0
-6.580928  0.684704  17.630039  0
-6.420161  1.149408  17.676558  0
-6.227671  1.631320  17.658300  0
-6.021697  2.122800  17.597160  0
-5.816219  2.622908  17.518044  0
-5.614432  3.130599  17.435181  0
-5.410676  3.646125  17.353197  0
-5.200292  4.171956  17.278708  0
-4.981050  4.704174  17.204639  0
-4.756968  5.243212  17.132544  0
-4.530369  5.784893  17.054428  0
-4.299500  6.315582  16.946999  0
-4.068708  6.821394  16.787575  0
-3.843589  7.309435  16.600321  0
-3.636551  7.777647  16.373369  0
-3.439480  8.242389  16.132164  0
-3.249232  8.702916  15.876009  0
-3.091767  9.148923  15.574844  0
-2.976455  9.586527  15.233810  0
-2.914239  10.020084  14.863093  0
-2.881479  10.453287  14.478643  0
-2.892641  10.880921  14.082861  0
-2.963172  11.300127  13.688292  0
-3.095008  11.706193  13.313992  0
-3.269489  12.095266  12.971332  0
-3.462902  12.467573  12.657372  0
-3.667115  12.823566  12.367663  0
-3.878666  13.163879  12.091206  0
-4.102272  13.486319  11.818360  0
-4.333103  13.791489  11.542290  0
-4.562224  14.072696  11.249443  0
-4.781595  14.332554  10.938920  0
-4.978329  14.567730  10.606853  0
-5.159904  14.782449  10.262051  0
-6.340405  0.200205  17.738464  0
-6.210387  0.650946  17.846760  0
-6.038925  1.125814  17.879995  0
-5.840386  1.613669  17.851225  0
-5.633007  2.107929  17.784407  0
-5.428643  2.609961  17.701477  0
-5.226035  3.117074  17.610054  0
-5.020113  3.629457  17.515997  0
-4.807727  4.147868  17.425158  0
-4.586814  4.667848  17.329296  0
-4.359068  5.191250  17.229771  0
-4.127784  5.708935  17.114241  0
-3.901801  6.210355  16.958187  0
-3.690943  6.680997  16.737169  0
-3.495745  7.132565  16.486652  0
-3.326176  7.568958  16.207750  0
-3.178071  8.003532  15.914548  0
-3.042036  8.438499  15.614470  0
-2.951959  8.865741  15.279676  0
-2.905977  9.288340  14.918172  0
-2.900286  9.709583  14.542510  0
-2.935671  10.131552  14.160377  0
-3.021357  10.550661  13.780224  0
-3.156656  10.962570  13.410376  0
